ply
format ascii 1.0
element vertex 808
property float x
property float y
property float z
property float nx
property float ny
property float nz
end_header
-39.382217 -7.985983 1.122141 0.635916 0.640795 0.430108
-39.727810 -7.467388 1.127789 0.939657 0.026605 0.341081
-39.637222 -7.190341 1.124751 0.832136 -0.496876 0.246303
-39.519791 -6.975260 1.120747 0.944828 -0.073305 0.319259
-39.331615 -8.908700 1.576457 0.616050 0.786811 -0.037564
-39.373703 -8.525794 1.574315 0.991266 0.131596 0.008596
-39.506634 -8.096981 1.576108 0.748089 0.410227 0.521610
-39.639660 -7.276227 1.574777 0.471644 0.191582 -0.860726
-39.531078 -6.998163 1.569748 0.362128 -0.046270 0.930979
-42.347176 -11.081654 -0.152509 -0.448434 0.580156 0.679945
-42.488743 -10.850760 0.127343 0.636436 0.685241 -0.354111
-41.744503 -10.943037 0.128775 -0.631516 0.294931 0.717080
-42.259018 -10.364568 0.334317 0.588687 0.663967 -0.461080
-41.731728 -10.517042 0.333650 0.682234 -0.143888 -0.716835
-41.179447 -10.656495 0.331992 0.711024 0.105896 -0.695148
-41.609028 -8.011062 1.372930 0.262520 -0.679108 -0.685490
-40.816917 -10.888821 1.640259 -0.607339 0.531069 0.590852
-42.673782 -8.111000 1.679378 -0.258457 0.524320 0.811350
-42.144161 -8.149488 1.662681 0.201525 -0.534739 -0.820635
-43.257072 -9.466411 1.424492 -0.094139 -0.323236 0.941624
-43.452564 -7.792861 1.419848 -0.379784 0.415131 0.826698
-45.604984 -11.950829 -1.046004 -0.215464 0.076736 0.973492
-46.804688 -9.969257 -0.819288 -0.398026 -0.191231 0.897221
-45.152390 -9.100212 1.767337 0.530841 -0.499260 -0.684797
-47.063271 -9.895578 -1.072453 -0.325615 -0.123312 0.937427
-48.096985 -8.925750 -1.095339 0.519921 0.645673 -0.559274
-47.803841 -8.848546 -1.378203 0.000097 0.101567 0.994829
-47.870556 -8.704636 -1.379287 -0.050294 0.100115 0.993704
-47.528450 -8.949134 -0.831018 -0.377760 0.128956 0.916879
-49.741352 -9.858477 1.922065 0.738554 -0.096068 0.667314
-63.090225 -12.602250 0.389629 0.985127 0.166973 0.040569
-26.867088 -7.832286 0.635833 -0.064567 0.086544 0.994153
-26.406361 -7.472885 0.627981 0.558813 -0.469415 -0.683650
-28.284851 -7.698048 -1.290953 0.476054 -0.851325 -0.220494
-28.511837 -9.245695 0.665344 0.390086 -0.145003 -0.909289
-28.160269 -8.936396 0.659446 0.454462 -0.493585 -0.741511
-27.998980 -8.788259 0.656491 -0.428287 0.494631 0.756247
-27.836687 -8.641121 0.653537 -0.260109 0.271510 0.926620
-27.497274 -8.393826 0.647650 -0.236020 0.290931 0.927175
-27.174686 -8.108550 0.641744 -0.089765 0.116385 0.989139
-29.356321 -9.725846 -1.191971 0.856793 0.469119 -0.214088
-29.593609 -9.261065 -1.009220 0.766048 0.642359 -0.023365
-29.401480 -9.482909 -1.191060 0.807735 0.576594 0.122894
-29.857191 -8.952382 -1.203443 0.770812 0.622076 0.137369
-30.045149 -8.697582 -1.208612 0.796359 0.601804 0.060370
-29.618929 -9.307998 -0.618221 0.762862 0.646516 -0.007619
-29.369747 -9.490791 -0.799041 0.682550 0.729185 -0.049145
-29.811468 -8.958250 -0.808417 0.742464 0.669809 0.010140
-29.793411 -8.282252 -0.615594 0.917058 -0.383319 -0.109866
-29.734097 -8.164207 -0.613595 0.910767 -0.407602 -0.066068
-29.324757 -9.731652 -0.453953 0.769932 0.636963 -0.038507
-29.358864 -9.433661 -0.236050 0.817821 0.573209 -0.050996
-29.750935 -8.989063 -0.239377 0.777296 0.627278 -0.048309
-29.998716 -8.701321 -0.241587 0.684942 0.728185 -0.024518
-29.626493 -8.188019 -0.234531 0.869222 -0.473622 -0.141900
-29.422033 -9.761604 0.154004 0.809291 0.586477 -0.033042
-29.346018 -9.390533 0.300945 0.812289 0.541968 -0.215538
-29.891926 -8.977107 0.153546 0.766014 0.639057 -0.069489
-29.530973 -9.140726 0.300780 0.789745 0.586155 -0.180899
-29.962713 -8.600174 0.301405 0.992470 0.105329 0.062517
-29.534740 -9.345662 0.519834 0.568551 0.494224 -0.657642
-28.870401 -9.562998 0.672240 0.366347 0.472426 -0.801626
-29.934818 -8.900071 0.522502 0.760814 0.622967 -0.181862
-30.102295 -8.483265 0.522298 0.992470 0.105329 0.062517
-38.207596 -10.295506 1.297486 0.788044 0.561411 0.252595
-37.678104 -10.356042 1.098789 0.788044 0.561411 0.252595
-37.584816 -10.201975 1.095793 0.788044 0.561411 0.252595
-39.629887 -13.807920 -1.158243 0.759648 0.535817 0.368557
-39.699043 -13.563687 0.331651 0.952220 0.303469 -0.034385
-39.527252 -13.799268 1.360810 -0.575978 0.715267 0.395781
-39.555790 -13.599321 1.359737 0.535697 0.835987 -0.118975
-39.507774 -13.968167 1.629868 -0.065904 0.996351 -0.054230
-39.179260 -13.574916 1.614929 -0.186950 0.936924 0.295335
-38.950630 -13.633697 1.609067 -0.575978 0.715267 0.395781
-39.800076 -13.515120 -1.160417 0.681790 0.643920 0.347174
-39.787994 -13.876003 -0.911307 0.810897 0.563404 0.158187
-39.797382 -13.597050 -0.909392 0.935220 0.348773 0.060998
-39.684139 -13.771807 -0.396282 0.957507 0.287050 0.027987
-39.757751 -13.567845 -0.136379 0.969404 0.245108 0.013316
-39.784519 -13.873770 0.132695 0.958572 0.281668 0.042462
-41.911205 -11.342136 0.128807 -0.448434 0.580156 0.679945
-39.757515 -13.741653 0.627671 0.965846 0.244056 -0.087052
-39.818024 -13.489695 0.844566 0.955448 0.294205 -0.023721
-39.734272 -13.955483 1.167745 0.992997 0.010878 -0.117638
-39.745510 -13.606541 1.164639 0.913913 0.389916 -0.112825
-41.587078 -11.849514 1.192136 0.660262 -0.564506 -0.495366
-40.683922 -11.371686 1.370477 -0.607339 0.531069 0.590852
-40.628338 -11.079677 1.366419 -0.607339 0.531069 0.590852
-39.841976 -14.227443 1.643766 0.945956 0.321044 -0.045796
-39.787632 -13.573481 1.634607 0.781061 0.618511 0.085952
-41.474400 -11.840300 1.670194 0.660262 -0.564507 -0.495366
-41.236160 -11.631107 1.660259 -0.676687 0.548892 0.490725
-40.804810 -11.300749 1.643391 -0.607339 0.531069 0.590852
-41.915203 -15.060842 -0.975090 0.045510 0.995210 -0.086525
-42.970940 -15.261623 -0.165590 -0.195504 0.980685 -0.005980
-41.843506 -15.037659 -0.432058 -0.176749 0.983878 -0.027289
-43.201912 -15.288773 0.125296 -0.195504 0.980685 -0.005980
-43.100754 -15.095658 0.342293 -0.199541 0.979754 0.016304
-41.909710 -14.980559 0.338890 -0.187804 0.982202 0.003167
-43.302319 -15.347687 0.902260 -0.199541 0.979754 0.016304
-43.059971 -15.104548 0.662317 -0.199541 0.979754 0.016304
-41.905041 -15.006432 0.880900 -0.199541 0.979754 0.016304
-42.092384 -15.134466 1.437838 -0.199541 0.979754 0.016304
-41.862236 -14.996318 1.219920 -0.199541 0.979754 0.016304
-42.016632 -15.149330 1.721883 -0.265762 0.963852 0.018949
-45.564255 -13.055085 1.284362 -0.391891 -0.011739 0.919937
-51.059647 -16.975574 1.683611 -0.054732 -0.100935 0.993386
-51.020710 -16.339645 1.677436 -0.021367 -0.045478 0.998737
-51.037434 -16.166691 1.676374 -0.021367 -0.045478 0.998737
-50.884689 -16.800364 2.019651 -0.021367 -0.045478 0.998737
-50.916142 -16.454453 2.017528 -0.021367 -0.045478 0.998737
-51.600269 -14.892366 2.023673 -0.021367 -0.045478 0.998737
-51.394585 -15.009151 2.017821 -0.021367 -0.045478 0.998737
-52.527542 -18.944983 0.105424 0.609892 0.751782 -0.250711
-53.310081 -16.454851 1.472239 -0.043907 -0.158426 0.986394
-52.956390 -16.403465 1.727414 0.043317 -0.192761 0.980289
-53.118816 -16.085674 1.729227 0.100320 -0.230596 0.967864
-52.905739 -15.931499 1.722294 0.033669 -0.192331 0.980752
-52.885212 -16.812248 2.083580 0.023586 -0.185989 0.982269
-53.252586 -16.558640 2.092303 -0.043907 -0.158426 0.986394
-53.078896 -16.688452 2.088437 -0.006079 -0.197791 0.980225
-52.319626 -15.457950 2.051462 -0.047828 -0.050397 0.997583
-53.211445 -18.959871 -1.000937 0.384954 0.753704 0.532673
-53.122135 -19.257648 -0.604799 0.376298 0.628375 0.680841
-53.398651 -19.071941 -0.608002 0.217057 0.725328 0.653288
-53.014248 -18.701727 -0.994910 0.330012 0.818347 0.470533
-53.552319 -18.796059 -0.258168 -0.164075 0.897746 0.408818
-53.935471 -19.624138 0.374879 0.819454 -0.455213 0.348247
-52.882767 -18.602377 0.105131 0.393304 0.905230 0.160843
-53.653561 -19.372828 0.772953 0.040023 0.862289 0.504832
-55.282166 -17.047781 0.779361 -0.094950 -0.401840 0.910774
-53.261810 -17.645597 1.479635 0.518752 0.193061 -0.832841
-53.733921 -19.415735 1.503923 -0.134852 0.977430 -0.162623
-54.800468 -17.483080 1.511757 -0.057980 -0.216454 0.974570
-55.286354 -16.072735 1.785050 -0.139298 0.169065 0.975712
-52.978642 -19.268911 2.113282 0.037789 0.933068 -0.357709
-55.386517 -16.836609 2.163238 -0.123994 -0.199080 0.972107
-54.846523 -16.578144 2.143448 -0.139298 0.169065 0.975712
-56.266060 -18.799721 -0.646622 0.146288 -0.404180 0.902906
-56.366154 -18.782738 -0.280681 0.033733 -0.301928 0.952734
-56.449242 -18.635698 0.379229 -0.181239 -0.338580 0.923318
-55.776707 -18.460999 0.788536 -0.148499 -0.420027 0.895279
-55.500042 -18.563719 0.786717 0.273849 0.481858 -0.832358
-55.711887 -16.316324 0.780897 -0.002108 -0.444402 0.895825
-55.726822 -18.125782 1.813459 0.537034 0.019940 -0.843325
-55.615990 -17.548841 1.529338 -0.143702 -0.379757 0.913857
-56.006432 -16.472347 1.806787 -0.109607 -0.281059 0.953411
-55.790012 -16.162260 1.523805 -0.081563 -0.206214 0.975102
-57.678528 -18.583784 0.806550 0.120650 -0.170197 0.977996
-57.259895 -18.649374 0.802797 0.241097 -0.239951 0.940370
-57.778740 -18.013985 0.805317 0.116156 -0.282223 0.952291
-58.708252 -19.294394 1.900219 0.111395 0.019890 0.993577
-58.963840 -18.396868 1.605798 -0.036142 0.010631 0.999290
-59.099689 -17.522161 1.603445 -0.063757 -0.196570 0.978415
-60.505028 -16.528973 0.387360 0.517838 0.771251 0.370157
-61.017376 -18.597967 0.836750 -0.394747 -0.060986 0.916764
-59.769600 -17.295021 0.822009 -0.027725 -0.158477 0.986973
-60.594292 -16.603945 0.827336 0.528187 0.763538 0.371521
-60.515820 -17.375473 1.930629 -0.220769 0.139688 0.965271
-60.979286 -22.033731 -1.179149 -0.342844 -0.170105 0.923863
-60.920856 -22.121473 -0.325091 -0.357168 -0.153292 0.921375
-62.438602 -20.848068 0.085697 -0.408574 -0.140511 0.901845
-60.629536 -21.864912 1.176986 -0.334788 -0.173343 0.926212
-62.606071 -22.506008 -0.338875 -0.349741 0.138967 0.926482
-63.286961 -20.961950 -0.341725 -0.256747 -0.140451 0.956219
-65.857841 -21.923431 -1.277808 -0.216364 0.068235 0.973925
-37.955452 -15.764510 1.603183 0.469546 0.240119 -0.849629
-38.051113 -15.663610 1.605106 0.644464 0.358715 -0.675270
-49.385845 -21.058973 -1.215293 0.658205 0.706930 -0.258873
-49.372791 -20.923922 -0.937325 0.644019 0.724121 -0.246756
-49.370144 -20.922768 -0.231324 0.656290 0.743895 -0.126116
-49.460335 -20.997766 0.111650 -0.575500 0.813727 -0.081536
-49.487671 -21.031651 0.742646 -0.349736 0.933404 -0.080265
-49.525787 -21.044624 1.019630 0.427816 -0.901026 0.071600
-49.347572 -21.229286 1.682776 0.866078 -0.373713 0.332035
-49.439987 -20.900423 1.681633 0.636161 -0.406296 0.655914
-49.627235 -20.518656 1.682425 0.264653 -0.361826 0.893891
-49.562397 -20.583586 1.681478 0.471562 -0.154440 0.868204
-49.474239 -20.976370 2.026638 0.431115 -0.072699 0.899364
-50.779655 -22.946768 -0.247483 0.558134 0.254246 -0.789839
-51.356678 -21.949465 -0.249070 0.957960 0.280801 0.058849
-51.287300 -21.634449 -0.248124 0.756777 0.212380 -0.618209
-52.162704 -20.371477 -0.250956 0.628081 -0.006745 -0.778118
-52.142906 -19.797554 -0.250116 0.498226 0.526423 -0.688948
-52.062199 -19.954453 -0.249026 0.496954 0.284454 -0.819830
-52.415413 -19.615841 -0.251315 0.576240 0.497769 -0.648208
-50.346973 -23.352171 0.371856 0.743433 -0.449224 -0.495485
-51.053509 -22.916952 0.107366 -0.207118 -0.211455 0.955191
-50.470654 -23.215309 0.371753 0.699159 -0.516338 -0.494541
-51.007854 -22.414988 0.108246 0.881835 0.435704 -0.180357
-51.542007 -21.381594 0.371668 0.979140 -0.004276 0.203144
-51.463497 -20.969589 0.370590 0.630183 0.454572 -0.629471
-51.348724 -20.358580 0.369471 0.951115 0.257103 -0.171111
-51.580704 -19.793890 0.369182 0.776605 0.552806 -0.302143
-51.989033 -19.573311 0.369899 0.336604 0.897715 -0.284261
-52.616783 -19.165030 0.105443 0.643497 0.706967 -0.293444
-50.216728 -22.949030 0.756811 0.785180 0.494350 -0.372976
-51.089909 -22.282946 0.762166 0.286887 0.957939 0.006936
-50.956226 -22.415800 0.761274 0.402567 0.909567 -0.103088
-50.476086 -22.683313 0.758600 0.644927 0.686793 -0.335237
-51.208595 -22.142076 0.762063 0.633024 0.769733 -0.082412
-51.736652 -21.120735 0.762490 0.838084 0.171035 0.518037
-51.500465 -20.835560 0.759531 0.805736 0.471994 0.357785
-52.015480 -20.472101 0.763152 0.712261 0.117688 0.691978
-51.907848 -19.959085 0.760057 0.884322 0.305803 -0.352787
-51.385292 -19.944597 0.755330 0.983946 0.175636 0.031659
-52.443737 -19.501667 0.762636 -0.595623 0.353021 0.721533
-50.205097 -22.957869 1.461819 0.991573 0.069971 -0.109027
-50.933640 -22.592690 1.048336 0.594444 0.414329 -0.689179
-50.418476 -22.671110 1.463627 0.622493 0.671140 -0.402584
-50.782116 -21.972557 1.464238 0.949399 0.137395 -0.282426
-51.599342 -21.269428 1.474606 0.566124 0.473163 -0.674997
-50.895893 -21.338852 1.039996 0.813919 0.141701 -0.563432
-50.451733 -21.623394 1.036311 0.892485 0.037132 -0.449546
-50.971596 -21.180948 1.040910 0.862919 0.266749 -0.429203
-50.271484 -21.190207 1.447281 0.469788 -0.858631 -0.205066
-51.867043 -20.522800 1.474246 0.670897 -0.257476 -0.695415
-51.704292 -19.894751 1.465146 0.746272 0.168269 -0.644021
-51.563602 -20.027596 1.463260 0.806737 -0.166611 -0.566936
-51.716370 -19.412933 1.039996 0.435605 0.888113 -0.146640
-51.660118 -19.205915 1.037964 0.410349 0.881908 -0.232063
-50.584572 -23.480082 1.738769 0.726545 -0.686351 -0.032484
-50.013382 -22.929640 1.718911 0.842864 0.062097 -0.534532
-50.330444 -22.499998 1.721625 0.588359 0.594634 -0.547946
-49.972122 -22.720633 1.714873 0.825082 0.306792 -0.474467
-50.629654 -22.155329 1.724370 0.591799 0.514051 -0.620907
-50.456856 -22.176165 1.720466 0.591799 0.514051 -0.620907
-51.207611 -20.414145 1.720562 -0.422521 0.082598 0.902582
-50.938240 -20.680851 1.716782 0.409772 0.223703 -0.884332
-51.123096 -20.008131 1.714488 0.612834 0.022046 -0.789904
-52.181141 -19.288240 1.733712 0.235195 0.960086 -0.151387
-51.225388 -19.583296 1.712308 0.721761 0.343065 -0.601139
-52.312836 -19.149387 1.735600 0.235195 0.960086 -0.151387
-50.513462 -23.223980 2.088734 0.637970 -0.093247 0.764395
-50.604069 -22.306206 2.079427 0.546036 0.522317 -0.655004
-50.190491 -22.313822 2.066645 0.570018 0.549700 -0.610663
-49.866158 -22.548489 2.059880 0.714053 0.481378 -0.508334
-50.624790 -22.124254 2.077364 0.608933 0.487485 -0.625746
-50.498425 -21.785191 2.068333 0.784648 0.336394 -0.520736
-50.923466 -21.398645 2.075999 0.906970 0.302142 -0.293454
-50.433178 -21.569164 2.063305 0.950288 0.299531 0.085048
-51.139442 -20.827938 2.075719 -0.429101 -0.001201 0.903255
-50.929188 -21.211681 2.073942 0.790416 0.163480 -0.590353
-50.354431 -20.324289 2.044986 0.021151 -0.027307 0.999403
-50.475117 -20.187424 2.046883 0.003809 -0.082189 0.996609
-51.102695 -19.601103 2.059378 0.533601 0.104487 -0.839257
-51.113361 -23.825018 -0.601409 0.925806 -0.377990 0.002683
-51.550652 -23.633455 -0.605690 -0.076903 0.497444 -0.864080
-51.765076 -23.981525 -0.258704 0.660152 -0.518868 0.543117
-51.407681 -23.424280 -0.253675 0.320493 -0.439839 0.838943
-51.387741 -22.733370 -0.251861 0.722470 -0.012262 0.691294
-52.101200 -21.396252 -0.253622 0.762597 0.383131 -0.521207
-52.062675 -20.998281 -0.251718 0.708410 0.187383 -0.680473
-53.205620 -19.527605 -0.257762 0.165496 0.511569 0.843154
-52.353119 -23.478016 0.376847 0.273106 -0.334492 0.901958
-51.972694 -23.722681 0.105115 0.543127 -0.408795 0.733417
-50.931877 -23.718658 0.373655 0.913889 -0.203908 -0.351040
-51.705097 -22.993488 0.374047 0.730431 -0.409124 0.546890
-51.259163 -22.814159 0.107229 0.817536 -0.006931 0.575836
-51.363552 -22.359272 0.372044 0.979637 0.185227 -0.077482
-51.740608 -21.942690 0.372727 0.957913 0.190316 0.214902
-51.483864 -22.044491 0.106891 0.957405 0.286286 -0.037616
-52.429783 -21.185518 0.105143 0.771456 0.607343 0.189714
-53.251881 -20.237389 0.373427 0.388464 0.822014 0.416400
-52.673496 -20.418873 0.104788 0.697424 0.559023 0.448434
-53.931736 -19.815102 0.374939 0.872396 -0.349784 0.341432
-52.739944 -20.062994 0.105647 0.006118 0.854031 -0.520187
-52.850975 -19.439203 0.105401 0.771775 0.466658 -0.431965
-50.966984 -23.679613 0.766626 -0.256781 0.462296 0.848732
-51.726341 -23.045416 0.771051 0.864308 0.147548 -0.480834
-51.971840 -21.407907 0.766450 0.787282 -0.206680 0.580922
-52.442139 -19.783617 0.763722 0.691320 -0.173045 -0.701521
-52.729378 -19.417948 0.765459 -0.009635 0.660227 0.751004
-51.208477 -23.392820 1.057420 0.926130 0.358240 0.118097
-50.972839 -23.480587 1.055567 0.934661 -0.055318 -0.351210
-51.058270 -23.130720 1.054424 0.138713 -0.059173 0.988563
-51.780518 -22.381510 1.058833 0.745839 0.337070 -0.574551
-51.490891 -22.450230 1.055004 0.757957 -0.041278 -0.650997
-52.092930 -21.450951 1.057399 0.729327 -0.116933 0.674099
-52.605553 -20.792538 1.059935 0.762447 0.547258 -0.345231
-52.395535 -21.210180 1.491169 0.527077 -0.018289 0.849621
-51.987404 -20.854856 1.479280 0.517851 0.007954 -0.855434
-52.863670 -20.316860 1.061657 0.961874 0.170556 -0.213798
-52.346107 -20.309376 1.053929 -0.337024 0.200901 0.919812
-51.471104 -23.789850 1.764395 0.606834 0.710261 0.356766
-54.103333 -19.935993 1.515884 0.545448 -0.834730 -0.075580
-52.630405 -19.736586 1.749608 0.724370 0.592485 -0.352491
-51.672760 -23.556997 2.129225 0.389190 0.822089 0.415573
-51.120373 -23.599480 2.112524 0.225677 0.877277 0.423622
-51.700214 -23.177080 2.124103 0.766047 -0.159080 -0.622788
-53.832096 -20.837446 2.159299 0.257056 -0.451266 0.854565
-53.481865 -21.189058 2.152589 0.217594 -0.390034 0.894721
-54.606045 -22.366526 -0.639658 0.974309 0.209086 -0.083701
-54.546333 -22.544439 -0.640574 0.950297 0.141999 -0.277078
-55.013988 -21.827003 -0.643034 0.949998 0.304268 -0.070176
-55.026466 -21.431082 -0.641158 0.949998 0.304268 -0.070176
-54.270031 -24.306812 -0.278917 -0.304607 -0.109690 0.946141
-54.650803 -22.839411 -0.277543 0.925156 0.302185 -0.229720
-54.993893 -22.372812 -0.278861 0.969751 0.244079 0.002779
-55.090214 -21.907982 -0.278050 0.971370 0.237549 0.003181
-55.058353 -21.995935 -0.278007 0.971370 0.237549 0.003181
-54.926010 -21.641870 -0.276042 0.965039 0.173110 -0.196807
-53.910461 -25.014280 0.101473 -0.095833 0.086840 0.991602
-52.995560 -24.389528 0.103772 0.049144 -0.024630 0.998488
-54.827721 -22.756508 0.100340 0.913756 0.320265 -0.249960
-54.652611 -21.779509 0.101144 0.884702 -0.135544 -0.446016
-53.830818 -22.145676 0.102686 0.781615 0.152755 -0.604768
-55.080944 -21.547951 0.099848 0.158867 0.938559 -0.306381
-54.231609 -21.394117 0.378252 0.850027 -0.421934 -0.315318
-56.146427 -21.049044 0.098132 0.582266 0.800688 0.140944
-54.192093 -20.984150 0.377151 0.819214 -0.449893 -0.355648
-53.137550 -23.471663 0.785435 0.016840 -0.305788 0.951951
-53.498493 -22.927086 0.786089 0.322416 0.597951 -0.733827
-54.709499 -22.118290 1.097214 0.967993 -0.222718 -0.115696
-54.380352 -21.787035 1.090290 0.955876 -0.021524 -0.292981
-55.130447 -21.582773 1.099832 0.807349 0.568428 -0.158358
-56.021221 -20.413816 1.105006 0.691069 0.409707 -0.595453
-54.764778 -22.973099 1.555437 0.757045 0.609753 -0.234698
-54.029247 -22.067564 1.531559 0.770460 0.309150 -0.557509
-54.936005 -21.462372 2.200900 0.112005 0.802469 -0.586087
-55.130253 -20.244764 2.192430 0.506663 0.158275 0.847492
-57.123650 -21.248608 1.588672 0.085446 -0.348616 0.933362
-57.880123 -23.590240 0.093974 0.215207 -0.078098 0.973441
-59.982227 -22.062263 1.168393 -0.187302 -0.185609 0.964607
-58.677551 -21.857811 2.322028 -0.093918 -0.081153 0.992267
-59.413765 -27.448193 -0.731702 -0.550633 0.159141 0.819437
-60.344810 -24.602150 1.187971 0.390205 0.269598 -0.880373
-62.983406 -23.267315 -0.758841 -0.349741 0.138967 0.926482
-64.999352 -24.876043 -1.280423 -0.232601 0.254172 0.938772
-65.093407 -24.745052 -0.794514 -0.207064 0.241949 0.947938
-65.127922 -24.290171 -0.792673 -0.185566 0.142449 0.972252
-64.072807 -23.438324 -0.774372 -0.157355 0.000831 0.987542
-65.763649 -28.923027 -1.325606 0.287406 0.474104 -0.832240
-65.824394 -28.702124 -1.325704 0.259265 0.421880 -0.868792
-67.096405 -25.431944 -1.326373 -0.129750 0.021800 0.991307
-65.796722 -28.763979 -0.823671 0.259266 0.421881 -0.868791
-65.025703 -26.018749 -0.799088 -0.171829 0.112573 0.978674
-67.081505 -25.256853 -0.823419 -0.253523 0.196242 0.947214
-65.792992 -28.811871 -0.380655 -0.208547 -0.322476 0.923319
-68.182259 -28.328432 -1.369065 0.222140 0.064876 0.972854
-68.414177 -27.293850 -1.366503 0.652699 -0.148879 0.742846
-68.240341 -26.232883 -1.354737 0.309476 -0.151828 0.938708
-67.615547 -24.898542 -1.332817 -0.276233 0.140807 0.950720
-67.679306 -24.680645 -1.332919 -0.293374 0.134045 0.946553
-68.186684 -26.286713 -0.843692 0.309476 -0.151828 0.938708
-69.499542 -29.775414 -1.406326 0.556615 -0.081944 0.826719
-69.334496 -29.576296 -1.402299 0.556615 -0.081944 0.826720
-68.545349 -28.732702 -1.380135 0.613005 -0.200112 0.764317
-68.451935 -28.187716 -1.373251 0.534575 -0.102061 0.838936
-68.997948 -29.512875 -0.870140 0.651856 -0.209737 0.728762
-68.860336 -28.686899 -0.864316 0.678067 -0.257510 0.688414
-69.886940 -30.283573 -0.886379 0.105935 0.057754 0.992694
-69.795250 -30.293383 -0.416327 0.105935 0.057754 0.992694
-37.452538 -18.935266 -1.154721 0.679607 0.666989 -0.305384
-37.495110 -18.774902 0.845217 0.988705 0.072897 -0.130950
-37.688957 -18.354126 0.844010 0.988705 0.072897 -0.130950
-37.574619 -18.592997 0.844130 0.988705 0.072897 -0.130950
-37.675339 -18.407997 1.364031 0.984091 0.163763 0.068900
-37.509872 -18.548832 1.361151 0.984091 0.163763 0.068900
-37.647713 -18.505905 1.633070 0.984091 0.163763 0.068900
-37.887733 -18.853674 -1.166962 0.710879 0.676607 -0.191976
-37.932156 -19.472544 -0.701825 0.966367 -0.076476 -0.245534
-38.128479 -18.837841 -0.919088 0.925088 0.310074 -0.219242
-37.813221 -18.980537 -0.912892 0.991298 -0.130860 0.014294
-37.571636 -19.009315 -0.907762 0.358043 0.933695 -0.004328
-37.864376 -19.460421 -0.401794 0.969679 -0.200254 -0.140074
-37.836319 -18.920458 -0.397919 0.910301 0.347945 -0.224245
-37.489925 -18.971138 -0.393730 0.991179 0.003689 -0.132481
-37.655743 -18.828148 0.335149 0.978542 0.169600 -0.117007
-37.736317 -19.044090 0.850164 0.957095 -0.289084 -0.019979
-37.995590 -19.236191 1.382082 0.948842 -0.303104 0.088470
-37.638432 -18.907906 1.369179 0.960791 -0.257180 0.103635
-37.576542 -18.965887 1.168225 0.956353 -0.288629 0.045624
-37.705612 -18.978903 1.641163 0.960790 -0.257180 0.103635
-50.639645 -23.813229 1.052834 -0.606690 0.738242 0.294834
-50.213322 -23.828743 1.471059 0.839301 -0.510845 -0.186041
-50.387844 -23.619934 1.471910 0.839301 -0.510845 -0.186041
-50.324757 -24.008686 2.095051 0.722119 -0.491952 0.486341
-51.930237 -25.259642 -1.024431 0.741922 -0.614575 0.268048
-51.697075 -24.946474 -1.016398 0.805182 -0.592025 0.034468
-51.870335 -24.527699 -1.016605 0.551210 -0.547565 0.629555
-51.539871 -24.671370 -1.011393 0.785300 -0.577962 0.221954
-49.930290 -28.781202 -0.616462 -0.342972 0.107683 0.933153
-51.809017 -24.847507 -0.616483 -0.489321 0.847236 -0.206776
-51.671673 -24.482435 -0.612514 0.741590 -0.601942 0.296157
-51.185574 -23.910997 -0.253422 0.892897 -0.392648 -0.220370
-50.972927 -24.007786 -0.252285 0.799551 -0.495538 -0.339351
-51.416031 -24.935919 0.376745 0.669882 -0.613804 -0.417736
-52.533272 -24.580069 0.104066 0.207887 0.015180 0.978035
-51.609413 -24.628145 0.376559 0.737877 -0.546830 -0.395619
-51.544174 -24.398121 0.376528 0.738856 -0.593970 -0.318263
-52.124996 -25.322430 0.784486 -0.490744 0.234773 0.839078
-52.017441 -25.576292 0.784612 -0.541109 0.308699 0.782244
-51.318054 -24.732777 0.774739 0.822488 -0.550699 -0.142282
-51.385761 -24.566864 0.774658 0.817242 -0.492827 -0.298724
-50.935398 -23.958542 0.767721 0.796390 -0.476029 -0.373042
-51.565094 -26.362694 1.083061 0.896754 -0.130321 -0.422904
-51.521847 -26.136688 1.080022 0.881369 -0.039055 -0.470812
-51.153309 -23.955681 1.060607 0.893004 -0.389020 -0.226290
-51.572067 -26.185633 1.522009 0.863462 -0.192262 -0.466335
-50.770046 -23.955179 1.748806 -0.156603 0.987311 0.026307
-51.250877 -25.548302 2.145000 0.852397 -0.187853 -0.487987
-50.754616 -25.702824 2.133297 0.851864 -0.202183 -0.483167
-51.204689 -24.625401 2.129768 0.964223 -0.182610 -0.192164
-50.976967 -23.925299 2.112690 0.383935 0.488501 0.783556
-53.829426 -25.863150 -0.280246 -0.095833 0.086840 0.991602
-52.778652 -25.979156 -0.271670 0.096952 0.524499 0.845873
-52.436470 -24.793024 -0.265824 0.611355 -0.747164 0.260751
-51.962273 -26.320213 0.379845 0.655828 0.003552 -0.754903
-52.876587 -25.867186 0.103249 -0.430023 -0.072778 0.899880
-52.088951 -26.178352 0.380741 0.655827 0.003552 -0.754903
-53.374592 -25.486708 0.101884 -0.194902 0.048681 0.979614
-52.811352 -25.629162 0.103216 -0.430926 0.121799 0.894130
-52.410019 -25.720718 0.380449 0.551482 0.028601 -0.833696
-53.553104 -25.135870 0.381693 -0.095833 0.086840 0.991602
-53.014473 -25.110432 0.102966 -0.194902 0.048681 0.979614
-52.017239 -26.189198 0.787781 0.758874 -0.067098 -0.647772
-52.349876 -28.447102 1.108225 0.929037 -0.354461 0.106058
-52.110588 -27.999950 1.101226 0.930454 -0.333472 0.151826
-52.030357 -27.745913 1.099199 0.928751 -0.334111 0.160598
-51.955124 -27.496881 1.096170 0.930436 -0.328092 0.163230
-51.840645 -27.019848 1.091099 0.923293 -0.261840 -0.281018
-51.639328 -26.605724 1.085089 0.923798 -0.189010 -0.332976
-52.523315 -28.782116 1.569226 0.929037 -0.354461 0.106058
-52.322006 -28.351995 1.560213 0.930137 -0.345783 0.123607
-52.153553 -27.836920 1.551161 0.930341 -0.331773 0.156178
-51.990089 -27.330845 1.542107 0.932944 -0.325233 0.154396
-51.909863 -27.080809 1.538080 0.957327 -0.285180 -0.046877
-51.646305 -26.427666 1.526037 0.922528 -0.194442 -0.333368
-52.691513 -29.279291 1.118273 0.721144 -0.397235 -0.567588
-52.555309 -28.988209 1.115265 0.929037 -0.354461 0.106058
-52.677769 -29.300180 1.577286 0.585698 -0.309088 0.749281
-54.309010 -30.440063 -1.118238 0.826007 0.536267 -0.173583
-54.549385 -30.124332 -1.119445 0.717641 0.684829 -0.126491
-54.230095 -31.132797 -0.686014 0.999074 -0.008322 0.042208
-54.252312 -30.467916 -0.682202 0.919653 0.383872 -0.082957
-54.966084 -30.074633 -0.688671 0.603387 0.797063 -0.024796
-54.499683 -30.156191 -0.683411 0.709405 0.703309 -0.045820
-54.224083 -30.956739 -0.300057 0.998042 0.053630 0.032186
-54.336258 -30.342934 -0.298278 0.844114 0.534407 -0.043366
-54.883236 -29.970491 -0.301656 0.549914 0.829013 -0.101645
-54.449951 -30.182060 -0.298379 0.665008 0.740739 -0.095235
-54.420368 -31.236795 0.097917 0.998919 0.005718 0.046121
-54.253063 -30.800707 0.097886 0.999156 0.039669 -0.010701
-54.381493 -30.422880 0.097721 0.884587 0.461785 -0.065270
-54.935463 -30.052444 0.097339 0.547711 0.835458 -0.044965
-54.484035 -30.003975 0.392556 0.660582 0.749507 0.043261
-54.319283 -30.753622 0.829841 0.984726 0.173942 0.007612
-54.360878 -30.439709 0.828736 0.919893 0.380219 0.096074
-55.095520 -29.942455 0.832228 0.681526 0.730352 0.045915
-54.779919 -29.996159 0.829403 0.715347 0.690622 0.106396
-54.587261 -30.114964 0.828533 0.715346 0.690622 0.106396
-54.306683 -30.958515 1.151901 0.991831 0.124161 0.029261
-54.245323 -30.585514 1.148833 0.945364 0.325383 0.020309
-54.335930 -31.006435 1.628899 0.999399 0.012431 0.032358
-54.289646 -30.590395 1.917812 0.935537 0.342263 0.087327
-54.937202 -29.936085 1.924307 0.780264 0.624929 0.025550
-54.503906 -30.147657 1.917585 0.880811 0.469200 0.063423
-54.332169 -30.926300 2.322880 0.941219 0.311580 0.130478
-54.369511 -30.383417 2.314716 0.907866 0.394371 0.142306
-54.696850 -30.114754 2.319478 0.907866 0.394371 0.142307
-55.439098 -28.393698 2.313628 0.767169 0.592720 -0.245223
-59.042774 -28.810532 -0.329119 -0.527643 0.164307 0.833424
-59.048527 -28.582573 -0.328187 -0.550633 0.159141 0.819437
-58.433392 -30.388554 0.401639 0.592410 0.049520 -0.804114
-58.279209 -30.076462 0.401631 0.592410 0.049520 -0.804114
-57.794044 -29.482109 0.398716 0.639680 0.332551 -0.692978
-58.513878 -29.184889 0.091261 0.588722 -0.013412 -0.808224
-56.716545 -30.588844 0.848575 -0.130548 0.964426 0.229872
-56.541496 -30.379715 0.846608 -0.069054 0.978999 0.191811
-56.714664 -29.784967 0.845356 -0.003769 0.982944 0.183865
-57.805824 -30.434631 1.998974 0.153538 0.704008 0.693397
-57.331528 -30.649162 1.991277 0.042227 0.780374 0.623886
-58.359722 -29.907227 2.005543 0.080647 0.731893 0.676631
-58.442440 -29.717335 2.005447 0.080647 0.731893 0.676631
-58.676098 -31.075005 -1.207297 0.783288 0.459548 0.418659
-58.314289 -31.660480 -0.741950 0.874744 0.422595 0.237143
-58.346539 -30.967621 -0.738157 0.890237 0.433573 0.139616
-58.648540 -30.303005 -0.737496 0.807132 0.581063 -0.104425
-59.854626 -31.334873 -0.342831 0.278087 0.664123 -0.693980
-59.223663 -30.769379 -0.336663 0.502120 -0.174417 0.847027
-59.045372 -30.323286 -0.333695 0.619946 0.782144 -0.062588
-59.251793 -29.958538 -0.333904 0.305636 -0.016595 0.952004
-59.077114 -30.105350 -0.332772 0.841141 -0.003503 0.540805
-57.581989 -33.009361 0.404787 0.862853 0.305349 0.402799
-58.705894 -31.270731 0.089742 0.978737 0.198645 0.051133
-60.026455 -31.125977 0.087023 0.539062 0.077516 -0.838691
-58.773373 -30.831861 0.089586 0.686880 0.618941 0.380931
-58.330177 -31.038355 0.402871 0.982049 0.054210 -0.180666
-59.845051 -30.555902 0.087957 -0.158557 0.447555 0.880088
-59.477962 -30.132629 0.089028 -0.298536 0.166091 0.939835
-58.832329 -33.869034 2.069383 0.629095 0.410281 0.660234
-59.624111 -31.242083 2.482263 -0.265812 0.951210 0.156664
-59.149555 -31.231651 2.468504 0.573746 -0.815028 0.080903
-58.811192 -31.529291 2.462760 0.643228 0.037211 0.764770
-58.557121 -31.418163 2.029859 0.611904 -0.777627 0.144464
-59.783798 -31.085255 2.484137 -0.357922 0.900405 0.247311
-59.367916 -31.012976 2.044331 0.877726 -0.465925 0.111853
-59.462387 -30.587132 2.041164 -0.177288 0.913678 0.365734
-62.675518 -33.432343 -1.305701 -0.190725 0.316456 0.929236
-62.529816 -33.608181 -1.304577 -0.190725 0.316456 0.929236
-62.489399 -33.713932 -0.370527 -0.328960 0.445124 0.832857
-62.520664 -33.800850 0.081481 -0.356891 0.444302 0.821721
-62.617386 -33.597973 0.081375 -0.356891 0.444302 0.821721
-62.479568 -33.484795 0.416415 -0.494750 0.405887 0.768426
-67.952568 -32.815285 -0.874614 0.045836 0.111227 0.992738
-68.036461 -33.703106 -0.412401 -0.295770 0.110518 0.948845
-67.892914 -35.601742 -0.890785 0.909751 0.200606 -0.363469
-68.942818 -36.339497 -0.428120 0.909751 0.200606 -0.363469
-66.435127 -38.134579 0.968667 0.808567 0.447794 -0.381706
-66.461273 -38.118523 1.362649 0.784130 0.466048 -0.409804
-66.469589 -38.174404 1.945660 0.746851 0.502390 -0.435680
-43.820740 -29.898695 -1.192162 -0.476794 -0.133718 0.868784
-43.581158 -29.938478 -1.188036 -0.416181 0.119711 0.901367
-43.781151 -29.832472 -0.220158 -0.416181 0.119711 0.901367
-43.467747 -29.921186 -0.217986 -0.417083 0.163427 0.894054
-43.713825 -30.129313 0.117945 -0.400642 0.281402 0.871951
-49.580002 -28.998854 -0.613229 -0.342972 0.107683 0.933153
-46.175793 -32.200321 -0.246753 -0.209671 0.430301 0.877997
-49.690914 -28.906893 -0.259309 -0.342972 0.107683 0.933153
-48.941486 -33.772743 -1.055718 -0.226991 0.833623 0.503535
-48.683151 -33.879414 -0.637566 0.852240 0.522673 0.022376
-48.795395 -33.813320 0.387363 0.852240 0.522673 0.022376
-48.945690 -33.958290 1.110326 0.852240 0.522673 0.022376
-48.893456 -33.695278 1.107287 0.852240 0.522673 0.022376
-48.818996 -33.899094 1.560373 -0.331759 0.870120 0.364455
-49.020359 -33.582314 1.560198 -0.331758 0.870120 0.364455
-57.880089 -33.421570 0.405746 0.893779 0.241985 0.377628
-57.586117 -33.286388 0.090859 0.887221 0.245308 0.390721
-57.787895 -35.361858 2.066305 -0.255978 0.139416 0.956576
-57.818687 -34.981853 2.492190 0.210334 0.125144 0.969587
-58.509331 -34.547630 2.071728 0.108568 0.104489 0.988582
-58.043182 -33.905308 2.051793 0.719858 0.419424 0.553072
-58.043182 -33.905308 2.051793 0.719858 0.419424 0.553072
-57.863159 -35.507816 2.503306 0.092148 0.053004 0.994334
-59.372150 -36.518185 1.790812 -0.191601 -0.057065 0.979813
-58.575146 -36.668442 1.777251 -0.176701 -0.099092 0.979264
-58.629181 -34.678787 1.754702 0.108568 0.104488 0.988582
-58.665554 -37.047398 2.111303 -0.176701 -0.099092 0.979264
-58.589867 -36.230453 2.098129 -0.176701 -0.099092 0.979264
-58.348228 -36.337219 2.094278 -0.176701 -0.099092 0.979264
-58.395111 -35.228428 2.078965 0.117756 0.069855 0.990582
-58.612526 -34.857681 2.078758 0.108568 0.104488 0.988582
-58.542801 -35.065586 2.079848 0.082516 0.124442 0.988790
-58.434246 -36.237225 2.532209 -0.145577 -0.102945 0.983976
-57.925980 -36.430737 2.521514 -0.145577 -0.102946 0.983976
-58.468987 -36.005287 2.529131 -0.058210 -0.057893 0.996624
-59.093601 -35.243969 2.533617 -0.035067 0.087793 0.995521
-58.595078 -35.198524 2.518857 0.110943 0.142708 0.983527
-58.701180 -34.386742 2.507588 0.108568 0.104489 0.988582
-59.644257 -36.944366 1.800787 0.056091 -0.120807 0.991090
-61.551208 -36.440018 2.624692 0.122654 -0.136052 0.983080
-61.654083 -39.129860 1.865349 0.205037 -0.082397 0.975280
-61.818306 -38.420116 1.860081 0.202288 -0.077485 0.976256
-61.608551 -39.437702 2.214451 0.277781 -0.122090 0.952854
-62.365028 -39.485283 2.702085 0.050461 0.000426 0.998726
-63.283722 -41.778862 2.287219 0.636746 -0.223634 -0.737931
-63.528145 -41.367146 2.286991 0.636746 -0.223634 -0.737931
-63.653862 -41.164291 2.286876 0.636746 -0.223634 -0.737931
-63.696278 -40.485432 2.277679 -0.550115 0.284109 0.785274
-63.530468 -41.491032 2.772022 0.636746 -0.223634 -0.737931
-62.809265 -40.320557 2.730080 0.723496 -0.481240 -0.494936
-62.959961 -40.137722 2.730957 0.561972 -0.414300 -0.715921
-66.603661 -38.758549 1.369750 0.760328 0.498830 -0.416017
-66.379539 -38.350410 1.363754 0.784130 0.466048 -0.409804
-64.100082 -42.248604 1.949934 -0.346121 0.201457 0.916306
-64.153831 -41.994690 1.947841 -0.366492 0.163079 0.916018
-63.723831 -41.429386 1.932910 0.636746 -0.223634 -0.737931
-66.472252 -39.015266 1.955887 0.858234 0.185948 -0.478391
-66.304886 -38.358219 1.944794 0.698889 0.563514 -0.440462
-63.630318 -41.719185 2.294031 0.636746 -0.223634 -0.737931
-63.673286 -42.735973 2.799270 -0.541585 0.265965 0.797464
-63.565456 -42.808868 2.797343 -0.541585 0.265965 0.797464
-63.849754 -42.274204 2.795065 -0.541585 0.265965 0.797463
-63.544132 -42.360912 2.788239 -0.541585 0.265965 0.797463
-66.627701 -42.806927 1.402816 -0.362132 0.831240 0.421782
-66.763412 -42.597084 1.402693 -0.378591 0.808258 0.450986
-66.421120 -42.730629 1.999899 -0.292792 0.420125 0.858934
-66.616806 -42.560833 2.000757 -0.292792 0.420125 0.858934
-65.593964 -43.889629 2.371612 -0.304834 0.451231 0.838729
-66.994942 -43.015030 2.389686 -0.292792 0.420125 0.858934
-45.921276 -32.564198 -0.987544 -0.322551 0.399589 0.858073
-45.909489 -32.447052 -0.246566 0.414282 -0.493653 -0.764641
-46.209267 -32.486244 0.112299 -0.251794 0.581832 0.773351
-48.779549 -34.328007 1.565495 -0.331759 0.870120 0.364455
-58.498390 -42.754044 -0.824185 0.554832 -0.247140 0.794408
-58.737789 -42.364311 -0.824396 0.538577 -0.281321 0.794225
-59.121986 -41.936710 -0.825689 0.538577 -0.281320 0.794225
-58.975304 -42.113556 -0.824573 0.538577 -0.281321 0.794225
-25.624266 -23.823784 -1.153082 0.769310 0.631718 0.095363
-25.879787 -23.459000 -1.151258 0.877684 0.470630 0.090434
-25.744169 -23.839796 -0.716130 0.838039 0.544130 -0.040162
-25.586348 -23.768711 -0.920076 0.848821 0.528467 -0.015008
-25.887098 -23.521919 -0.713250 0.865109 0.501247 0.018367
-25.669411 -23.773659 -0.287111 0.833594 0.540861 0.112203
-25.582796 -23.844587 -0.287061 0.794418 0.596669 0.113520
-25.877459 -23.590830 -0.288233 0.788533 0.593430 0.161420
-25.946594 -23.648800 0.152748 0.826043 0.555107 0.097520
-25.980469 -23.549751 0.564715 0.717403 0.694974 0.048404
-25.898970 -23.558571 1.177752 0.717404 0.694974 0.048404
-38.976368 -38.793594 -0.570997 -0.351271 0.936030 -0.021361
-43.172607 -42.471867 -1.073107 0.274336 -0.088305 0.957571
-43.149872 -42.518761 -0.650088 0.260062 -0.027571 0.965198
-45.030540 -41.067398 -0.281229 0.361182 -0.316970 0.876971
-45.103554 -40.906349 0.395704 0.361182 -0.316970 0.876971
-45.102802 -40.967262 0.820718 0.361182 -0.316970 0.876971
-45.125168 -41.232197 1.136763 0.228631 -0.059876 0.971670
-45.128906 -40.976223 1.134708 0.361182 -0.316970 0.876971
-45.150143 -44.199291 -0.686633 -0.124706 -0.003400 0.992188
-48.130711 -46.804565 -0.743426 -0.133107 0.302840 0.943700
-51.623947 -51.042034 -0.373111 -0.272423 0.030166 0.961705
-51.345379 -51.087795 -0.371977 -0.272423 0.030166 0.961705
-54.077808 -52.951923 -0.398813 -0.430135 0.673909 0.600691
-56.347851 -55.723412 0.450748 -0.447230 0.705563 0.549697
-8.667221 -9.930934 0.667410 0.021293 0.026466 0.999423
-8.437783 -9.737782 0.657463 0.021350 0.026467 0.999422
-8.231317 -9.565644 0.648510 0.021353 0.026237 0.999428
-8.030664 -9.369507 0.639554 0.021377 0.026162 0.999429
-7.832195 -9.202376 0.630599 0.021332 0.026176 0.999430
-9.673954 -10.777617 0.711172 0.838974 -0.351651 -0.415289
-9.415519 -10.562441 0.700234 -0.126672 -0.066943 0.989683
-13.960126 -16.190908 0.177324 -0.220472 0.820352 -0.527650
-14.145904 -16.082005 0.279245 -0.172766 0.857709 -0.484238
-13.922800 -16.034857 0.278317 -0.036430 0.835121 -0.548858
-13.403592 -15.549487 0.276439 -0.390363 0.730550 -0.560280
-13.826632 -15.808702 0.695323 -0.469838 0.816501 -0.335526
-13.156062 -15.295237 0.677493 -0.500804 0.862167 -0.076570
-12.990274 -15.395140 0.676561 -0.137042 0.125900 0.982532
-15.331727 -18.182186 -1.276905 -0.440692 0.888039 0.131063
-15.559096 -18.244267 -0.867978 -0.553882 0.831918 -0.033566
-15.244717 -17.996042 -0.850899 -0.619860 0.784031 -0.032699
-15.057967 -17.789881 -0.697859 -0.639686 0.762421 -0.097553
-14.375928 -17.063313 -0.262713 -0.594627 0.743454 -0.306095
-15.630735 -18.267368 -1.164001 -0.367229 0.909111 0.196621
-15.843522 -18.417414 -0.576057 -0.568706 0.802075 0.182346
-15.994190 -18.822485 -0.313057 -0.592536 0.798031 0.109764
-15.750635 -18.639334 -0.432994 -0.568706 0.802075 0.182346
-15.549461 -18.290182 -0.422968 -0.606379 0.774161 0.181602
-18.270618 -20.937281 -1.198596 -0.585449 0.798152 -0.142137
-17.794529 -20.593935 -1.170468 0.795658 -0.605393 0.020689
-18.344307 -20.870272 -0.871634 -0.593648 0.794882 -0.125478
-18.198332 -20.640131 -0.679613 -0.582175 0.800615 -0.141729
-17.945053 -20.550949 -0.672531 0.751917 -0.659044 0.016752
-20.048788 -22.277491 -0.759072 -0.540708 0.822950 0.174319
-19.339705 -21.636969 -0.727897 -0.632506 0.629608 0.451143
-18.836460 -21.216599 -0.707769 -0.632528 0.770470 0.079277
-18.836460 -21.216599 -0.707769 -0.632528 0.770470 0.079277
-19.853743 -22.339289 -0.422987 -0.570900 0.794573 0.206702
-19.267565 -22.244865 -0.412778 -0.599291 0.752451 0.273254
-19.316189 -22.158899 -0.412810 -0.599291 0.752451 0.273254
-18.567490 -21.585356 -0.392613 -0.723610 0.672918 0.153525
-20.959377 -22.982164 -0.795316 -0.603360 0.793859 0.075791
-20.567089 -22.693840 -0.597208 -0.581856 0.812532 0.035145
-20.861233 -23.977955 -0.043122 -0.225749 0.621420 -0.750250
-20.811800 -22.890993 -0.445273 -0.710138 0.698423 0.088934
-20.522366 -22.719778 -0.438187 -0.569198 0.821580 0.031924
-20.748419 -23.400835 0.160832 0.645261 -0.457645 0.611718
-21.707796 -23.141516 0.310414 -0.581595 0.742008 -0.333425
-21.532101 -23.029385 0.309466 -0.503030 0.811203 -0.298178
-20.793226 -22.939869 0.160742 0.956651 -0.284082 0.064157
-20.550694 -22.767664 0.306810 -0.585355 0.800989 -0.125602
-21.130110 -23.724018 0.696734 0.692861 0.300427 0.655505
-21.608919 -23.428370 0.698500 0.566722 0.787778 -0.241313
-21.395479 -23.329170 0.936568 0.634514 0.700608 0.326405
-21.674046 -23.132420 0.695426 -0.018045 0.999742 0.013815
-21.212427 -23.121109 0.529607 -0.057140 0.945245 0.321321
-20.659157 -23.057676 0.684813 -0.088174 0.991944 0.090950
-20.543444 -23.044621 0.523856 0.942345 -0.334032 0.020231
-21.492769 -23.531174 1.296562 0.826355 0.562823 -0.019187
-21.069128 -23.568901 1.085734 0.334556 0.110827 0.935836
-21.758787 -23.063412 1.088382 0.763525 0.645639 -0.013374
-21.564596 -23.149267 1.086473 0.763525 0.645639 -0.013374
-22.681595 -24.704483 -1.094719 0.613306 -0.491572 -0.618233
-22.942362 -24.887600 -0.681792 0.564989 -0.481036 -0.670368
-22.835350 -24.691492 -0.502782 -0.660519 0.641529 0.390071
-22.537603 -24.454336 -0.864702 -0.446955 0.496022 0.744441
-21.913345 -23.857838 -0.643552 -0.642997 0.720071 0.260870
-22.498781 -24.409243 -0.493694 0.734204 -0.656962 -0.171302
-21.328608 -24.434330 -0.249231 0.331178 0.776866 -0.535537
-21.701094 -23.779572 -0.047480 0.396712 0.720193 -0.569158
-21.415468 -23.993361 -0.046334 0.160713 0.650576 -0.742242
-21.709759 -23.639580 -0.046506 0.445960 0.663624 -0.600603
-21.856829 -23.814621 0.311464 0.771739 0.531324 -0.349448
-21.751585 -23.553545 0.311463 0.642914 -0.490181 0.588544
-21.540098 -23.786243 1.098584 0.844536 0.521598 -0.121221
-24.450838 -26.339724 -0.736156 -0.509682 0.693718 0.508900
-24.335516 -26.049681 -0.942158 -0.556049 0.732722 0.392337
-23.602695 -25.439016 -0.281965 -0.555314 0.686503 0.469404
-22.947826 -25.531523 -0.276689 -0.595750 0.676247 0.433327
-25.163857 -26.835224 -0.569361 -0.372852 0.611971 0.697476
-24.663351 -26.399883 -0.741232 -0.417681 0.656020 0.628633
-24.795511 -26.204029 -0.955319 -0.417681 0.656020 0.628633
-35.868832 -39.251041 -0.543576 0.395537 0.917845 0.033336
-36.704674 -38.793743 -0.547016 0.406257 0.913517 0.020996
-36.429432 -38.991505 -0.546862 0.395537 0.917845 0.033336
-37.424030 -38.567341 -0.552368 0.257275 0.958198 -0.125163
-36.867275 -38.720875 -0.548100 0.363774 0.931473 -0.005212
-37.846245 -38.458630 -0.222571 -0.127441 0.990849 -0.044471
-37.472801 -38.322334 -0.219436 0.076359 0.993814 -0.080645
-37.543808 -38.322330 0.121533 -0.141079 0.966254 -0.215525
-37.561825 -38.130241 0.748488 -0.370859 0.912388 -0.173240
-37.567127 -38.152119 1.431490 0.347967 0.884788 -0.309950
-36.947857 -37.763641 1.415683 0.338654 0.916411 -0.213319
-36.011101 -38.912769 1.671301 0.402151 0.900015 -0.168067
-37.041710 -37.699677 1.665630 0.397559 0.851700 -0.341401
-36.107986 -38.851788 2.009248 0.402151 0.900015 -0.168067
-35.969368 -38.948673 2.008325 0.402151 0.900016 -0.168067
-38.602917 -38.666298 -0.565859 -0.252046 0.966575 -0.046959
-38.168728 -38.540886 -0.225695 -0.176512 0.983909 -0.027680
-38.273666 -38.433872 0.377239 -0.273162 0.959184 -0.073132
-37.850662 -38.612511 0.376457 -0.249118 0.963518 -0.097840
-38.115585 -38.584530 1.447337 -0.409527 0.907182 -0.096478
-44.016785 -47.048973 0.103432 -0.052330 0.107757 0.992799
-47.382679 -49.790459 0.420510 -0.470641 0.851472 -0.231284
-47.788021 -50.323498 1.790439 -0.298290 0.953603 0.040786
-49.077919 -50.916767 0.425993 0.906113 0.422963 0.007848
-49.260323 -50.466957 0.425822 0.874049 0.471079 -0.118841
-49.086685 -50.606800 0.425926 0.811791 0.576654 -0.092004
-49.139915 -50.749741 0.918932 0.938525 0.338515 -0.067661
-48.911320 -50.833546 0.918049 0.846727 0.531973 -0.007605
-49.339310 -50.318947 0.917757 0.853024 0.516659 -0.073579
-49.699467 -49.894287 0.916511 0.846485 0.520535 -0.111831
-49.351955 -49.860001 0.913658 0.846485 0.520535 -0.111831
-49.112297 -51.010632 1.283996 0.994956 0.065068 0.076347
-48.922672 -51.135464 1.284105 0.994956 0.065068 0.076347
-49.320454 -50.270870 1.278755 0.849243 0.523718 -0.067129
-49.080093 -50.658634 1.279940 0.943483 0.328106 -0.046761
-49.322632 -51.605648 1.835024 0.939863 -0.333786 0.072422
-49.147308 -50.780579 1.818935 0.993865 0.045147 -0.100968
-49.179054 -50.495632 1.814863 0.993865 0.045147 -0.100968
-49.449505 -51.491703 2.171945 0.943738 -0.330676 -0.003453
-49.119297 -50.512520 2.146893 0.839858 -0.529971 -0.117338
-49.000614 -50.709404 2.147985 0.839858 -0.529972 -0.117338
-49.144051 -50.221565 2.141823 0.942121 0.017751 -0.334803
-49.142330 -50.349468 2.591850 0.867833 -0.407900 -0.283697
-48.374710 -50.667809 2.581251 0.839858 -0.529972 -0.117338
-51.255955 -53.282097 1.892512 -0.467599 0.727963 0.501420
-49.978401 -52.174995 2.655850 0.778295 -0.624838 0.061927
-51.848782 -53.778393 2.738351 -0.518459 0.710259 0.476164
-53.910614 -54.864002 2.812660 -0.470019 0.687976 0.552966
-53.147602 -54.773376 2.792980 -0.470019 0.687976 0.552966
-6.154913 -8.769882 -1.132026 0.750043 0.656270 -0.082130
-6.637104 -8.339981 -1.259140 0.974016 0.215186 0.070630
-6.360786 -8.471891 -1.174076 0.721187 0.656683 -0.220581
-6.501406 -8.195871 -1.158113 0.921609 0.388118 0.000552
-6.334444 -8.501809 -0.721070 0.755611 0.604481 0.252301
-6.460046 -8.205789 -0.771104 0.952657 0.303492 0.018367
-6.554633 -8.243735 -0.204124 0.944688 0.202191 0.258229
-6.345342 -8.476728 -0.270072 0.668947 0.533808 0.517262
-6.527532 -8.197723 -0.265119 0.925950 0.161610 0.341319
-6.644283 -8.291713 0.195857 0.964959 0.203206 0.166016
-6.279921 -8.436602 0.246940 0.640414 0.766579 -0.047181
-6.532862 -8.216626 0.320880 0.974194 -0.051412 0.219780
-7.278769 -8.736019 0.606721 0.172150 0.056409 0.983454
-6.396947 -8.880699 0.590928 0.776543 -0.072308 0.625901
-7.116281 -8.601917 0.599756 0.537517 -0.643211 0.545303
-6.797107 -8.307709 0.584822 -0.427281 0.804694 -0.412187
-6.321507 -8.417555 0.577931 0.918859 0.372335 -0.130634
-6.640620 -8.175611 0.577855 -0.129518 0.891493 -0.434126
-6.477911 -8.136539 0.573891 0.743296 0.563950 -0.359823
-7.034913 -9.991196 0.633833 0.021595 0.026516 0.999415
-10.017135 -12.308201 -0.208803 -0.615571 0.783840 -0.081656
-10.056083 -12.316154 0.187186 -0.672311 0.739946 -0.021836
-9.778973 -12.081886 0.646249 0.426341 0.325726 -0.843881
-8.596600 -11.742227 0.619555 0.131534 -0.320441 0.938092
-8.579796 -11.757220 0.619560 0.231872 -0.233837 0.944222
-8.689768 -11.712267 0.620528 0.112069 -0.288326 0.950951
-10.709286 -12.911784 -0.842960 -0.589044 0.807980 -0.014000
-10.507197 -12.835657 -0.830904 -0.485320 0.868942 -0.096975
-12.608234 -15.165955 0.274663 -0.526678 0.820285 -0.223034
-12.144556 -14.588594 0.405752 -0.266291 0.415911 0.869544
-11.968938 -14.431455 0.500793 -0.243835 0.357781 0.901408
-12.578850 -15.235854 0.761681 -0.512662 0.855911 -0.067779
-11.741892 -15.381364 0.750967 -0.180319 0.290916 0.939602
-12.706845 -15.145927 0.762628 -0.394820 0.908324 0.138073
-12.295464 -15.009679 0.659749 -0.246486 0.462149 0.851859
-11.795865 -14.915354 0.741901 -0.120752 0.293716 0.948235
-13.859527 -16.888081 -0.899556 0.680595 -0.721824 0.125541
-13.796529 -16.730934 -0.361554 -0.540394 0.656967 -0.525707
-13.666289 -16.471832 -0.354541 -0.471682 0.672053 -0.570843
-13.520816 -16.432758 -0.478496 -0.489158 0.718880 -0.493899
-13.242971 -16.049511 -0.230447 -0.314911 0.681289 -0.660815
-13.039471 -15.882343 -0.080398 -0.325298 0.651575 -0.685296
-13.297152 -15.861483 0.045512 -0.313425 0.610186 -0.727625
-12.811227 -15.460121 0.179629 -0.543521 0.703350 -0.458131
-12.761271 -17.398125 0.811867 0.535811 0.208555 -0.818176
-12.111230 -16.641685 0.783988 -0.275320 0.042490 0.960413
-11.837552 -16.597521 0.779068 -0.115727 0.072498 0.990632
-13.104255 -15.825244 0.685573 0.734285 0.185327 -0.653053
-14.648845 -17.480591 -0.678755 0.594173 -0.755762 0.275287
-14.577023 -17.467588 -0.944732 -0.571805 0.766203 0.293210
-14.108018 -17.062206 -0.652620 -0.602261 0.737908 -0.304587
14.118019 -2.466081 -1.291975 -0.043735 0.434656 0.899534
14.541778 -2.401163 -1.335019 -0.013998 0.275051 0.961328
15.164517 -2.590066 -1.209964 -0.274204 0.518745 0.809763
15.635862 -2.472183 -1.157028 -0.241168 0.525417 0.815950
14.209597 -2.109362 -1.390129 -0.060847 0.496753 0.865756
15.545853 -2.100450 -1.338174 0.042738 0.349147 0.936093
15.707259 -2.652056 -0.969959 -0.066104 0.755237 0.652110
15.942182 -2.315316 -1.277100 -0.249447 0.319841 0.914045
15.881360 -2.700010 0.754054 -0.471224 0.855364 0.215174
15.924940 -2.656045 0.755035 -0.471224 0.855364 0.215174
23.166138 -2.823307 -1.239081 -0.350826 0.125075 0.928050
23.770716 -3.181117 -1.150974 -0.374538 -0.367687 0.851192
23.247252 -2.501501 -1.242189 -0.554104 0.071155 0.829401
23.393091 -2.312617 -1.124253 -0.583790 0.224777 0.780169
23.687925 -2.849307 -0.993081 -0.513543 -0.311420 0.799556
23.660126 -2.524497 -0.853188 -0.981955 -0.017761 0.188279
