ply
format ascii 1.0
element vertex 823
property float x
property float y
property float z
property float nx
property float ny
property float nz
end_header
-28.748131 12.811818 0.166372 0.404471 0.765318 -0.500692
-27.604589 12.502822 0.167730 0.749682 -0.314272 0.582417
-28.772648 11.176879 0.524179 0.781918 0.539897 -0.311634
-28.910643 11.857953 0.528339 -0.459687 0.302666 0.834914
-29.495947 11.971436 0.695665 -0.469457 0.426234 0.773262
-29.016628 11.880013 0.688398 -0.504843 0.310511 0.805429
-27.624489 12.268746 0.670710 0.936463 -0.346190 -0.056470
-28.547094 12.707569 0.528253 -0.414335 0.221796 0.882685
-27.711962 12.411816 0.672775 0.927874 -0.350028 -0.128571
-28.509151 12.881490 0.687255 0.381711 0.486511 -0.785877
-28.324472 13.194339 0.528196 -0.001986 -0.091317 0.995820
-28.349293 10.834367 1.231909 0.622113 0.449207 -0.641240
-28.626516 11.311624 1.053118 0.781918 0.539896 -0.311635
-28.294130 11.076342 1.041911 0.622113 0.449207 -0.641240
-29.387671 13.339723 -1.595224 0.936033 0.351834 0.007410
-29.250240 13.607579 -1.594264 -0.069357 0.996820 -0.039244
-29.443766 13.317732 -1.394197 0.936033 0.351834 0.007410
-29.613213 13.689777 -1.032062 0.740406 0.660431 0.125022
-29.271589 13.515563 -1.390264 0.922839 0.383947 -0.030858
-31.306316 12.638309 -0.657287 0.449557 -0.770736 0.451515
-30.129244 13.378180 -0.637826 0.580540 0.715516 0.388600
-29.463871 13.686599 -0.816142 0.632317 0.762835 -0.135124
-31.301973 12.695263 -0.486283 0.449557 -0.770736 0.451515
-29.838160 11.862834 0.315834 -0.253269 0.523066 0.813792
-31.362612 12.706142 0.321751 0.481235 -0.875219 -0.049032
-29.442621 13.386363 0.316811 0.761339 0.000316 0.648354
-29.368551 13.332219 0.702765 0.281882 0.386628 -0.878101
-29.694162 13.558527 0.542965 0.719170 0.265049 0.642295
-31.529673 11.727161 1.344723 0.609538 -0.556653 -0.564448
-31.532200 12.082176 1.136767 0.609538 -0.556652 -0.564448
-32.251659 13.224344 -1.738712 0.787424 -0.545690 0.286680
-32.011787 13.298029 -1.313832 0.998335 0.002439 -0.057625
-32.059326 13.399019 -1.112795 0.877806 0.471188 0.086245
-31.780411 12.315771 -0.665072 0.666329 -0.332514 0.667413
-31.797400 12.551765 -0.668035 0.597878 -0.655010 0.462065
-31.957933 13.429876 -0.884845 0.478767 0.842754 0.246065
-31.842951 12.166754 -0.258056 0.742473 -0.256565 0.618796
-32.223946 12.492027 -0.053813 0.748301 0.155011 0.644994
-31.706488 12.684583 -0.259068 0.364002 -0.787729 0.496977
-32.252560 12.315988 0.325182 0.241548 -0.853343 -0.462018
-32.376793 12.550114 0.163276 0.296178 0.886318 0.355975
-31.797960 12.539553 0.323964 0.449329 -0.842271 -0.297796
-32.058022 12.123777 0.560054 -0.537883 0.570109 0.621014
-31.940561 12.192663 0.559000 -0.468925 0.590489 0.656835
-31.582928 12.660259 0.729864 0.695816 -0.635109 -0.335376
-35.589867 14.775821 0.159256 -0.610808 0.570112 0.549442
-35.365368 14.805574 0.339139 -0.501140 0.702493 0.505333
-35.888237 16.476707 1.112599 -0.180787 -0.064169 0.981427
-38.333530 17.149113 -0.109015 0.523327 0.676951 -0.517558
-40.491070 16.569563 -1.960906 0.857799 0.032534 0.512955
-38.464241 17.133448 -1.118947 0.790290 0.557813 0.253548
-38.393749 17.245371 -1.118973 0.783440 0.558591 0.272394
-39.751144 18.463472 -1.173119 0.329368 -0.731354 -0.597191
-38.468788 17.338116 0.353077 -0.539371 0.268567 0.798092
-38.700012 17.663330 0.155234 -0.539371 0.268566 0.798092
-42.361107 16.573317 -2.047889 0.077447 0.341347 0.936741
-41.554398 17.389450 -2.026248 -0.513881 0.336305 0.789193
-41.102592 18.341906 -2.024400 0.882788 -0.089501 -0.461166
-41.070080 18.481859 -2.026404 0.882789 -0.089500 -0.461166
-41.961609 16.272926 -1.767136 -0.211838 0.530750 0.820627
-42.809956 16.387650 -1.533662 0.487906 0.686885 0.538644
-42.324162 16.797195 -1.790887 0.217521 -0.684520 0.695785
-41.468807 16.671465 -2.008365 0.578224 0.101798 0.809502
-42.233662 16.914095 -1.788925 0.191246 -0.714269 0.673235
-41.621807 16.968515 -1.765252 -0.448547 0.625902 0.638007
-40.979012 17.599888 -2.003540 0.891070 -0.429270 0.147385
-41.498619 18.141245 -1.780205 0.944035 -0.317415 -0.089697
-41.250389 17.870104 -2.021366 0.890961 -0.453736 0.017642
-40.983692 18.527719 -1.767447 0.975590 -0.219459 0.007882
-40.916191 18.651642 -1.766471 0.876282 -0.481208 -0.023835
-42.583561 16.147470 -1.522809 0.557580 0.753199 0.348992
-42.065128 16.361891 -1.214071 0.365723 -0.603309 -0.708706
-41.694775 16.066584 -1.199302 0.574375 -0.613806 -0.541604
-42.215759 16.842030 -1.518942 0.298243 -0.949866 0.093836
-41.783371 16.819630 -1.504179 0.446932 -0.562448 -0.695632
-41.346516 16.602186 -1.195438 0.800409 -0.470025 -0.372050
-42.699856 16.919407 -1.238670 0.607349 -0.550250 0.573020
-41.747852 16.957575 -1.504185 0.019358 0.987448 0.156752
-41.446426 16.985291 -1.494346 0.890744 -0.264756 -0.369431
-42.181110 17.556837 -1.231891 -0.322116 -0.823742 0.466574
-41.078651 17.663860 -1.491479 0.871146 -0.316529 -0.375385
-40.798691 17.804522 -1.194617 0.934119 -0.264046 -0.240212
-41.091591 17.974833 -1.497442 0.954539 0.285405 -0.086022
-40.959320 18.298668 -1.497482 0.877155 -0.368522 -0.307882
-40.503906 18.551216 -1.485704 0.421546 -0.704594 -0.570829
-41.965225 15.949746 -0.713166 -0.481862 0.611809 0.627295
-41.854729 16.057629 -0.712215 -0.514303 0.594678 0.617941
-41.369965 16.445173 -0.932441 0.466333 -0.442258 -0.766121
-42.407021 17.323023 -0.964791 0.639988 -0.561262 0.524786
-41.904663 17.269560 -0.953069 0.648768 0.742271 0.167730
-42.440022 17.591965 -0.734747 0.947268 0.098455 0.304944
-40.828144 17.648514 -0.931616 0.869411 -0.441409 0.221995
-41.253399 18.295822 -0.948323 0.830476 0.431245 0.352615
-40.878067 17.974518 -0.935557 0.972690 -0.102278 -0.208358
-42.218643 18.173615 -0.417811 0.882759 -0.463477 0.076973
-41.644310 18.336004 -0.134107 0.361801 -0.682260 0.635312
-43.022736 16.844845 -1.820502 0.918933 0.053488 0.390769
-42.780106 16.914549 -1.540627 0.669695 -0.515174 0.534887
-42.378769 18.688992 -1.825675 -0.028069 -0.900822 -0.433281
-42.989288 16.880684 -1.246516 0.651539 -0.548858 0.523690
-42.961235 17.106518 -0.741510 0.862869 -0.490598 0.121535
-42.951775 16.946531 -0.739530 0.840175 -0.511454 0.180336
-42.612427 17.821095 -0.740631 0.960925 -0.137817 0.240060
-42.617893 17.980080 -0.741613 0.960925 -0.137817 0.240060
-42.374123 18.424793 -0.740702 0.935860 -0.348985 0.048737
-42.600937 17.580988 -0.138660 0.898415 -0.434414 0.064298
-42.555885 17.874907 -0.138656 0.962591 -0.242125 0.121626
-42.772137 17.240131 0.152400 0.907983 -0.416008 0.050048
-42.738350 17.460070 0.151403 0.907983 -0.416008 0.050048
-42.236488 18.735434 0.151253 0.865620 -0.500429 -0.016522
-51.590912 21.499653 0.403607 0.141832 -0.048598 0.988697
-20.898197 6.688942 0.703351 0.963302 -0.249287 -0.099524
-22.928881 6.840264 -1.531551 0.793862 0.256700 -0.551260
-22.675751 7.773013 -1.535536 -0.578363 -0.105494 0.808929
-22.636198 6.368941 -1.225784 0.865110 -0.475686 0.159086
-23.104025 6.366411 -1.417535 -0.478007 0.666171 0.572473
-22.717232 6.544013 -1.233712 0.927175 0.370171 0.057624
-22.846104 7.084120 -1.250556 0.994163 0.003726 -0.107828
-22.224594 7.153551 -1.215873 0.499789 0.861502 -0.089583
-22.544422 7.763833 -1.246606 0.843890 0.536391 0.011600
-22.378651 7.512686 -1.231734 0.616468 0.567059 0.546270
-22.633923 7.873912 -1.254542 0.802869 0.515587 -0.299285
-22.494581 6.216659 -0.526885 0.553129 -0.442113 -0.706105
-22.779140 6.540979 -0.830680 0.621521 -0.680871 0.387461
-22.168682 6.772416 -0.807965 -0.259595 0.064334 0.963572
-21.541372 6.649846 -0.779317 0.905530 -0.196505 -0.376033
-21.406086 6.666751 -0.901386 0.810378 -0.090955 -0.578805
-22.812687 6.957031 -0.971594 0.943424 0.297332 -0.146782
-22.296032 7.231526 -0.818823 0.174809 0.926628 -0.332870
-21.752142 7.047006 -0.660140 0.782755 0.592085 -0.191650
-22.086193 7.466333 -0.813895 0.246510 0.967979 -0.047433
-21.643719 7.727933 -0.799084 0.888702 -0.442534 -0.119890
-22.282249 6.196408 -0.268001 -0.692592 0.592301 0.411700
-21.710739 6.287886 -0.257289 0.727612 -0.677557 -0.107223
-22.480459 6.834543 -0.114790 0.672598 0.006017 0.739984
-22.201281 6.337358 -0.384021 -0.590021 0.479009 0.649943
-21.603052 6.528812 -0.371305 0.667322 -0.634528 0.389944
-21.394117 6.626651 -0.497399 0.969603 -0.244475 -0.010098
-22.686956 7.309758 -0.282604 -0.404295 0.770752 0.492430
-22.227814 7.212371 -0.391862 -0.238744 -0.823336 -0.514897
-21.832256 7.177989 -0.266076 0.849582 -0.519455 0.091524
-22.487265 7.375603 -0.398698 0.544995 0.838425 -0.004922
-22.333746 7.554400 -0.115750 0.996383 0.057729 0.062352
-21.747396 7.617936 -0.383048 0.898881 -0.315293 0.304309
-22.532463 6.041572 0.029106 0.488486 -0.789797 -0.370947
-22.162298 6.115177 0.281921 0.830451 -0.447954 -0.331192
-21.726583 6.292835 0.033720 0.740605 0.008748 0.671884
-22.119928 6.475134 0.281959 0.850388 -0.026311 0.525498
-21.925867 6.611013 0.031879 0.675119 0.453710 0.581689
-22.613600 7.146594 0.174331 0.539204 -0.763282 0.355894
-22.383476 7.264385 0.175229 0.755982 -0.335800 0.561898
-22.358063 7.486359 0.174251 0.982200 -0.012996 0.187388
-22.103260 6.085063 0.554885 0.973240 -0.225429 -0.044563
-21.698183 5.977635 0.820651 -0.354311 0.473973 0.806110
-21.357677 6.275328 0.814522 0.804549 -0.524135 0.279255
-22.830488 6.865707 0.569401 0.667388 -0.572730 0.475997
-21.074171 6.582075 0.809425 0.644406 -0.764375 -0.021725
-22.735558 6.991619 0.568371 0.744096 -0.517717 0.422245
-21.040585 6.968047 0.811474 0.879030 0.353512 -0.319898
-23.292427 6.519609 -1.550410 -0.691878 0.675683 0.254475
-23.017948 7.180338 -1.545449 0.984479 -0.035033 -0.171972
-23.058365 7.786362 -1.562332 -0.595445 0.234358 0.768454
-23.991083 7.940212 -1.629815 0.939902 0.296465 0.169388
-22.748302 8.036075 -1.546456 0.641052 0.480170 -0.598740
-23.270332 7.317476 -1.151294 0.429854 0.773635 -0.465526
-23.693983 7.859915 -1.486984 -0.193018 -0.004827 0.981183
-24.085115 8.622181 -1.218662 0.608845 -0.439995 -0.660085
-23.594116 6.573698 -0.721240 0.527711 0.088391 0.844812
-23.137486 6.413312 -0.843510 0.304707 -0.783632 0.541363
-23.233818 7.702369 -0.865252 0.552631 -0.250190 0.794987
-22.823902 7.556968 -0.704492 0.219127 0.970115 0.104210
-23.993429 8.324008 -0.756755 -0.622092 0.440758 0.647096
-23.799500 8.265866 -0.896866 0.896579 0.017963 -0.442519
-23.458536 8.129495 -0.574067 0.693258 0.559631 0.454099
-23.852003 8.367910 -0.899823 -0.654255 0.423899 0.626307
-24.265032 7.550146 -0.140729 -0.089142 0.721696 0.686447
-23.657900 7.602658 -0.429043 0.729246 0.357522 0.583420
-23.445759 7.735462 -0.425135 0.730473 0.660927 0.172002
-23.522125 8.195491 -0.305023 0.831310 0.550657 0.075499
-23.480537 6.541332 0.454694 0.163501 0.610856 -0.774676
-23.268353 6.520139 0.452578 -0.049885 -0.261370 0.963949
-23.767309 6.981580 0.458918 -0.576598 -0.041802 0.815958
-24.597490 7.531380 0.172445 0.331001 0.282257 0.900427
-24.437689 7.469273 0.012351 -0.233531 0.629201 0.741329
-23.008261 7.618878 0.453616 0.479484 0.305711 0.822579
-23.733616 8.146611 0.016081 -0.655319 0.584927 0.477931
-23.487404 6.554310 0.577700 0.286489 0.286941 -0.914105
-23.312977 6.582150 0.575611 0.198335 -0.219427 0.955257
-23.174955 7.017950 0.868608 0.186277 -0.086333 0.978697
-23.308762 7.610120 0.579773 0.211652 0.487761 0.846932
-23.433289 7.894225 0.583883 -0.720869 0.371066 0.585370
-26.112562 9.148971 -1.162511 0.948632 -0.307326 0.075158
-25.885176 9.339753 -1.154604 0.956619 -0.264010 0.123203
-26.093683 9.026744 -0.170538 0.914661 -0.403732 0.019883
-25.886049 9.270542 -0.168614 0.962228 -0.271572 0.019145
-26.007286 9.043590 0.170419 0.858265 -0.247108 -0.449799
-25.966330 9.210545 0.170421 0.799652 -0.140859 -0.583708
-25.954117 9.434522 0.170446 0.987202 0.095900 -0.127418
-25.662121 8.726151 0.824190 0.924601 0.373448 -0.075159
-26.095800 9.273484 0.966498 0.948689 -0.013119 0.315939
-25.718378 9.084228 0.623271 0.917330 0.393363 0.061404
-25.613066 8.695043 1.118159 0.728447 0.677457 0.102060
-26.095728 9.270446 1.140498 0.962156 -0.000785 0.272500
-29.350899 9.585408 1.055281 -0.222906 0.097271 0.969975
-31.530710 8.619756 -0.039667 0.406973 -0.033312 0.912833
-30.861147 9.358935 0.539066 0.088540 0.140730 0.986081
-33.234089 10.203104 0.325458 0.334938 -0.008016 0.942206
-32.899200 9.873826 0.324235 -0.074393 0.157989 0.984634
-32.528255 11.103359 0.324185 0.755864 -0.314892 0.574032
-32.447781 11.188276 0.324152 0.766268 -0.307253 0.564295
-38.022713 12.929182 0.623374 0.872377 -0.327997 -0.362458
-44.012287 13.166763 0.684676 0.836766 -0.146293 0.527656
-55.866211 19.495617 2.221791 0.044561 -0.117039 0.992127
-22.606796 6.040735 -0.391854 0.697707 -0.652348 -0.296052
-23.210230 5.743168 0.174419 -0.299442 0.799486 0.520726
-22.718960 5.670693 0.283143 0.263317 -0.847806 -0.460315
-22.297876 5.746305 0.281931 -0.533652 0.836702 0.123065
-23.084892 4.311957 0.739107 0.395032 0.549766 -0.736007
-22.610281 4.167492 0.833824 0.964813 -0.262934 -0.001104
-23.480663 4.726315 0.749393 0.674944 0.555128 -0.486090
-23.300467 4.560126 0.855267 0.443564 0.458935 -0.769825
-22.611788 4.403514 0.727867 -0.129219 -0.098478 0.986714
-22.679913 5.646594 0.562118 -0.291341 0.917786 0.269794
-22.219116 5.810132 0.726900 0.736592 -0.588321 -0.333632
-21.679491 5.762588 0.958604 -0.485214 0.587250 0.647846
-22.720100 4.048563 0.980862 0.930704 -0.291532 0.220905
-23.219418 4.698013 1.002247 0.378689 0.417421 -0.826047
-22.883009 4.702703 0.990066 -0.227985 -0.356556 0.906030
-25.262478 4.558414 -1.060667 -0.574242 0.645281 0.503844
-24.655600 4.604832 -1.031990 0.101348 -0.841249 -0.531064
-25.003073 5.096177 -1.213720 0.337042 -0.819154 0.464100
-24.720840 5.094939 -1.329874 0.213369 -0.898525 0.383570
-24.110493 5.201355 -1.295187 0.167913 -0.966587 0.193689
-23.595379 5.279865 -1.265452 -0.383810 0.896420 0.221632
-23.441221 5.263691 -1.129537 0.608683 -0.730714 0.309132
-24.336449 5.430599 -1.483027 0.401411 -0.907981 -0.120164
-23.564266 5.773820 -1.270386 0.972223 0.133322 0.192374
-23.353262 5.568629 -1.255534 0.884132 -0.129775 0.448854
-23.288685 6.128552 -1.260476 -0.687974 0.471137 0.552016
-25.111300 4.551237 -0.909750 0.395873 -0.908162 -0.136109
-24.819353 4.646920 -0.749894 0.537309 -0.068081 0.840633
-24.427423 4.757608 -1.022088 0.408157 0.303270 0.861066
-25.497553 5.062544 -0.778457 0.658454 -0.693072 0.293409
-25.102646 5.145165 -0.763658 0.409066 0.253638 0.876546
-24.770435 5.271808 -0.588818 0.302450 -0.950025 -0.077302
-24.319611 5.336417 -0.736051 0.216557 -0.972570 0.084911
-25.132189 5.395181 -0.767602 0.291174 -0.955922 0.037831
-24.627575 5.414738 -0.895872 0.119548 -0.945863 0.301746
-24.089203 5.521194 -0.729145 0.865675 -0.493832 0.082073
-23.880314 5.636026 -0.866239 0.514682 -0.519652 0.681956
-23.395433 5.847597 -0.984465 0.530655 -0.527355 0.663553
-24.170258 6.009215 -0.576022 0.545056 -0.579273 0.606100
-23.652691 6.001770 -0.718301 0.394809 -0.643735 0.655539
-23.407574 6.139570 -0.852410 0.688297 -0.420884 0.590850
-25.201132 4.525146 -0.142706 -0.198330 0.704349 0.681585
-24.388052 4.572374 -0.132141 -0.676230 0.637180 0.369749
-24.316853 4.742266 0.018849 0.785772 -0.615478 -0.061221
-25.514809 4.993490 -0.457459 0.780768 -0.280479 0.558330
-25.351137 5.247323 -0.455507 0.572899 -0.761354 0.303523
-24.704054 5.298681 -0.311849 0.734895 -0.673725 0.077611
-24.253424 4.976232 -0.131146 0.968549 0.212571 0.129330
-25.057652 5.753953 -0.144585 0.277906 -0.195886 0.940424
-24.524912 5.619500 -0.309894 0.888786 -0.457993 -0.017370
-24.230761 5.761248 -0.430030 0.786726 0.149550 0.598913
-23.959774 5.539003 -0.422212 0.985883 -0.029235 -0.164864
-24.645323 6.061554 -0.139758 0.768280 -0.446689 0.458493
-24.244844 6.070221 -0.305972 0.675618 -0.635296 0.374086
-23.868488 6.210867 -0.299152 0.542471 -0.741646 0.394571
-24.025333 6.423966 -0.133033 0.556656 -0.790922 0.254121
-24.579325 4.532485 0.172957 0.814943 -0.565774 -0.125568
-24.336164 4.681251 0.173849 0.765056 -0.576768 0.286405
-24.689594 5.138497 0.463117 0.659182 0.483366 0.576052
-24.766659 5.513656 0.014220 0.650195 -0.118111 0.750530
-25.245380 5.994081 0.009555 0.332619 -0.134393 0.933436
-24.268787 6.210129 0.173063 0.522625 -0.753564 0.398754
-25.245987 4.639967 0.789338 0.489060 -0.339115 0.803630
-24.827772 4.461627 0.591080 0.588639 -0.278156 0.759035
-24.118895 5.285889 0.766832 0.129940 0.910438 -0.392707
-23.712942 5.041521 0.756572 0.656328 0.429850 -0.620050
-25.337681 4.847978 1.074422 0.537792 -0.227606 0.811773
-23.583061 4.659352 1.013437 0.586224 0.584981 -0.560480
-24.397732 5.177089 1.044965 0.083524 0.836385 -0.541742
-27.427380 4.957126 0.299580 0.632609 -0.158118 -0.758159
-27.219227 5.487893 0.299548 0.673888 -0.065399 -0.735933
-26.956299 5.608638 0.298423 0.423351 -0.721969 0.547298
-26.044699 5.561813 0.171920 0.352360 -0.538830 0.765183
-25.550339 5.704342 0.171674 0.232224 -0.553005 0.800161
-25.421400 5.840215 0.172626 0.175587 -0.533714 0.827235
-25.682402 5.880429 0.294773 0.231803 -0.628713 0.742285
-27.465750 5.237099 0.492644 0.653727 -0.295713 -0.696560
-27.375319 5.106989 0.632574 0.667052 -0.157890 -0.728088
-26.650280 5.527280 0.622244 0.430558 -0.737137 0.520816
-26.705610 5.980229 0.956343 0.626369 -0.619769 0.472809
-26.016033 6.155653 0.614997 0.228016 -0.727017 0.647653
-26.040871 6.523610 0.817066 0.311030 -0.738682 0.598005
-25.897669 6.517450 0.937988 0.291408 -0.719861 0.629985
-25.382832 6.552975 0.924716 0.151900 -0.709726 0.687906
-26.680275 5.841175 1.126308 0.645046 -0.593612 0.481187
-26.651548 5.965140 1.126312 0.626369 -0.619769 0.472809
-26.350451 6.457833 1.120224 0.420162 -0.809160 0.410761
-25.579184 6.519120 1.094817 0.229727 -0.713537 0.661884
-25.437733 6.566988 1.090748 0.174863 -0.735888 0.654135
-28.814119 5.130665 -0.712635 -0.271246 -0.403917 0.873657
-29.159687 5.435930 -0.551400 -0.345122 -0.175781 0.921950
-29.091476 5.879912 -0.918372 0.493075 0.359702 -0.792144
-28.567492 5.363336 -0.388735 0.320733 0.888574 -0.327973
-27.980827 5.025803 -0.376107 0.088308 -0.994972 -0.047256
-27.866352 5.094688 -0.374159 0.088310 -0.994972 -0.047258
-29.113403 5.655833 -0.401393 0.990240 -0.028995 -0.136324
-28.931095 6.231566 -0.196409 0.620462 0.416695 -0.664373
-28.969084 5.259598 0.168470 0.992613 0.044754 -0.112771
-28.711651 5.287319 0.305333 0.231789 0.638739 -0.733680
-28.851419 6.105386 0.306530 0.600445 0.365969 -0.711008
-28.726988 6.734219 0.306553 0.747178 0.333170 -0.575085
-28.702818 6.172194 0.507458 0.582975 0.352413 -0.732082
-28.757353 6.841193 0.509585 0.624715 0.380892 -0.681654
-28.767153 7.581987 1.210695 -0.370561 -0.301620 0.878470
-30.422438 7.452917 -0.435425 0.203897 0.932568 0.297898
-29.826328 6.134380 -0.022934 -0.138627 -0.363350 0.921281
-29.540298 7.041988 0.168039 0.597280 0.462437 -0.655293
-30.454187 5.938700 1.254383 0.108463 -0.165439 0.980238
-32.096771 6.245576 -0.238674 0.195611 0.565071 -0.801518
-31.594488 6.403035 -0.035928 0.644284 0.518026 -0.562626
-31.984554 6.006365 0.317232 0.731334 0.303304 -0.610866
-31.926060 6.098300 0.317212 0.731334 0.303304 -0.610866
-32.051285 6.705392 0.165364 0.556595 0.473897 -0.682366
-31.958797 6.790296 0.165325 0.626297 0.421428 -0.655859
-32.406425 7.137649 0.319616 0.149058 0.664457 -0.732311
-31.886040 6.917179 0.317302 0.681706 0.372754 -0.629549
-32.940529 7.851078 0.322002 0.475223 0.858080 -0.194580
-32.922527 8.063039 0.322020 0.484797 0.833546 -0.264900
-32.851528 7.334900 0.975886 0.439946 0.744705 -0.501859
-31.984890 7.356176 0.544415 0.447543 0.649313 -0.614897
-31.735950 7.278912 0.706269 0.522934 0.623063 -0.581663
-32.682552 7.510722 0.973817 0.439946 0.744705 -0.501859
-32.233898 7.565295 0.963579 -0.001399 0.750760 -0.660574
-31.926155 7.480071 0.710399 0.515767 0.608136 -0.603453
-31.614475 7.311705 1.099207 0.535900 0.594882 -0.599105
-32.099106 7.689121 1.115521 -0.001399 0.750760 -0.660574
-31.946394 7.598988 1.110426 0.110679 0.701735 -0.703788
-32.983711 8.176934 0.984068 0.228619 0.950158 0.211975
-31.843658 7.941857 1.109415 0.110679 0.701735 -0.703788
-33.544514 8.231692 -0.052619 0.196212 0.293097 0.935732
-33.064995 7.990180 0.323088 0.484797 0.833546 -0.264899
-33.630745 8.108607 0.738413 0.403980 0.914178 -0.032844
-33.999870 8.077812 1.388611 0.087047 0.900541 0.425968
-35.612156 7.734565 0.583452 0.098952 0.881150 -0.462367
-36.759892 8.225594 0.596144 0.068740 0.834605 -0.546543
-35.770584 8.119668 0.585587 0.039102 0.849436 -0.526241
-39.768246 9.528057 1.593952 0.480998 0.417014 -0.771194
-27.812534 2.366794 -0.173623 0.562505 -0.778162 0.279376
-27.862968 2.277810 -0.004610 0.559091 -0.815855 0.147640
-28.547726 2.207525 -0.183240 0.588742 -0.692402 0.417088
-28.330240 2.279307 -0.180349 0.450555 -0.868045 0.208561
-29.540789 2.466523 -0.400644 0.444267 0.892531 -0.077555
-29.194113 1.799151 -0.013946 0.174465 -0.731117 0.659568
-28.783495 1.690714 0.168806 0.429746 -0.494724 -0.755359
-29.233606 1.893181 -0.014908 0.321402 0.944186 -0.072204
-28.604288 2.062476 0.302768 0.798630 -0.428863 -0.422217
-28.259319 2.213128 0.301600 0.516607 -0.821514 0.241313
-28.596296 2.418439 0.302822 0.215981 -0.728750 0.649827
-28.074314 2.390965 0.169527 0.525546 -0.796857 0.298025
-28.589890 1.756439 0.499709 -0.686065 0.527591 0.500962
-28.362406 1.830212 0.496594 0.627886 -0.765364 -0.141344
-29.278385 2.233035 0.655172 0.360935 0.757563 -0.543898
-28.487900 2.105312 0.498710 0.848566 -0.449820 -0.278563
-28.302170 2.223122 0.496626 -0.723056 0.571773 0.387641
-29.061153 2.442806 0.652085 0.098209 0.984876 -0.142739
-28.555994 2.415268 0.858799 0.342240 0.936512 0.076273
-28.111191 2.383924 0.494546 0.354875 -0.932365 -0.068986
-29.014854 2.077664 1.186000 -0.300222 0.727629 0.616785
-28.715382 2.145369 1.175844 0.350384 0.919480 -0.178291
-28.394663 2.254050 1.165683 0.585105 -0.650588 0.484135
-28.649710 2.459323 0.994858 0.148531 0.976879 0.153769
-39.627434 2.997913 1.303070 -0.520363 0.353708 0.777247
-41.524303 2.638227 -0.357914 0.240294 -0.958703 -0.152141
-40.495552 2.762194 -0.344475 0.558679 -0.794304 0.238660
-39.953518 2.974628 -0.336751 0.343037 -0.934986 0.090148
-40.496578 2.193115 0.346449 -0.083544 0.891887 0.444474
-41.681793 2.365134 0.851138 -0.456031 -0.001336 0.889963
-41.475960 2.104023 0.636988 -0.366547 0.327797 0.870743
-40.672199 2.253211 0.628556 0.178783 -0.795559 -0.578898
-40.424679 2.365951 0.625432 0.097862 0.900611 0.423465
-41.241291 2.467686 0.843904 0.283475 -0.333569 0.899096
-40.831512 2.634259 0.837697 0.036074 -0.716861 0.696282
-40.824448 2.888214 0.837726 0.194795 0.954674 -0.225061
-41.118999 1.509591 1.341707 0.213641 -0.704891 -0.676378
-40.106453 1.845549 1.314183 0.786667 -0.596699 -0.158449
-41.177265 1.950627 1.151799 -0.214580 0.622856 0.752334
-40.952549 1.875418 1.146663 -0.356882 0.587129 0.726577
-40.088917 1.969513 1.313190 0.786667 -0.596699 -0.158449
-41.585819 2.553935 1.162109 0.083103 -0.091398 0.992341
-40.026524 2.528370 1.313231 0.745092 -0.261585 -0.613524
-41.569210 2.942859 1.162151 -0.046421 -0.311339 0.949165
-41.246967 2.984538 1.154976 0.273283 0.478393 -0.834540
-40.984451 1.601383 1.595644 -0.356580 0.219885 0.908020
-40.876919 1.725259 1.592600 -0.133381 -0.026932 0.990699
-40.502869 1.961858 1.580422 0.070512 -0.185771 0.980060
-40.241825 2.199568 1.571307 0.562776 -0.461524 -0.685769
-40.486004 2.402776 1.580472 -0.505551 0.236411 0.829776
-40.262955 2.640523 1.573379 -0.488153 0.255784 0.834435
-42.368851 2.231998 0.155507 0.384788 -0.865243 -0.321392
-42.214840 2.132692 0.859407 -0.478161 0.149316 0.865487
-45.619339 0.220614 -0.133928 0.654722 0.385693 -0.650061
-45.836227 0.507780 -0.135767 0.734325 0.414118 -0.537841
-45.218124 0.202097 0.363843 0.507808 0.840509 0.188880
-45.737579 0.041562 0.681115 0.456526 0.787936 0.413208
-45.896420 1.113537 0.683347 0.665594 -0.145478 0.731998
-45.514774 1.529090 0.679185 0.711809 -0.163133 0.683166
-45.453503 1.598018 0.679160 0.329665 -0.841362 0.428290
-45.453400 1.881971 0.679196 0.185068 -0.510353 0.839815
-45.396347 0.753913 1.461017 -0.267388 -0.006329 0.963568
-45.922581 1.246400 1.261379 -0.672420 0.374725 0.638305
-45.125706 1.170577 1.453919 0.893080 -0.219054 -0.392966
-45.755379 1.812140 1.258357 -0.493292 0.587783 0.641229
-45.230602 1.454633 1.457016 0.810583 0.379221 -0.446259
-45.878441 2.318176 1.261491 0.784339 0.158367 -0.599777
-45.274208 2.357577 1.248156 0.784197 0.609498 -0.116395
-45.920708 0.365424 1.764262 -0.190854 -0.006513 0.981597
-45.800606 0.649258 1.760232 -0.365572 0.342516 0.865471
-45.385689 1.137769 1.746062 -0.340249 0.198669 0.919109
-45.475479 1.707762 1.750186 -0.467039 0.094573 0.879165
-45.363037 1.561676 1.746104 -0.400739 0.081700 0.912542
-46.248142 0.057336 -0.420594 -0.276045 -0.015727 0.961016
-46.015114 0.796909 -0.137628 0.607649 0.595507 -0.525485
-46.376629 0.253101 0.923505 0.789535 0.077486 0.608794
-46.441677 0.760078 0.924608 0.962013 -0.271506 0.028548
-45.992752 1.253552 0.917419 0.713786 -0.279166 0.642321
-46.057095 1.685542 0.919511 0.627121 -0.148745 0.764587
-46.001713 2.042427 0.918526 0.584209 -0.347531 0.733431
-46.375454 0.247016 1.271503 0.941939 0.106840 -0.318333
-46.241066 0.606822 1.268475 0.858475 -0.254447 -0.445284
-46.223953 0.894756 1.268503 0.810922 -0.371551 -0.452057
-45.978920 1.677382 1.263466 0.737476 -0.162743 -0.655472
-46.555363 3.152697 1.278976 -0.075319 -0.315003 0.946097
-46.261982 0.336835 1.485451 0.705810 0.228216 -0.670634
-46.365150 0.553900 1.487538 0.858475 -0.254447 -0.445284
-47.952698 0.904329 1.834480 0.277113 -0.062670 0.958791
-45.982147 2.628173 1.479589 0.617136 0.608953 -0.498317
-47.153843 3.287206 1.513328 -0.279875 -0.434954 0.855853
-48.115257 2.317596 0.374749 0.355839 0.934547 -0.000400
-47.967812 3.099088 1.311762 0.136079 -0.004269 0.990689
-48.650204 0.235132 1.857788 0.143457 -0.683868 0.715363
-48.773071 0.540199 1.862897 0.021727 -0.054654 0.998269
-49.537163 2.759629 1.579604 -0.215430 0.345544 0.913340
-51.189266 2.460658 0.147497 0.219295 -0.864560 -0.452157
-50.897549 2.614285 0.385351 0.141719 -0.856503 -0.496305
-51.535999 0.060084 1.632398 0.320558 0.438632 0.839550
-51.427860 0.889746 1.954440 -0.131828 0.524325 0.841252
-53.905315 0.753608 0.395823 0.731473 -0.239863 0.638289
-53.628296 1.335222 0.395737 0.731473 -0.239863 0.638289
-53.489727 1.498054 0.394678 0.640388 -0.743626 -0.192156
-53.436146 1.663969 0.394668 0.618087 -0.737148 -0.273097
-52.480610 1.796000 0.391145 -0.225295 0.425673 0.876382
-52.530746 2.044002 0.391203 -0.151020 0.376675 0.913952
-52.264618 2.359680 0.390091 0.352466 -0.640473 -0.682321
-53.790806 0.550442 0.767733 0.731473 -0.239863 0.638289
-53.646648 0.883236 0.765693 0.731473 -0.239863 0.638289
-53.974056 0.723523 1.043858 0.598401 0.735766 0.317120
-53.506676 0.091939 2.024517 0.266706 0.914459 0.304356
-54.154076 0.575950 0.143942 0.731473 -0.239863 0.638289
-54.183765 1.145717 0.772028 0.731473 -0.239863 0.638289
-54.553303 1.241996 1.053248 0.731473 -0.239863 0.638289
-57.135971 3.049834 -1.591087 0.998535 -0.015588 -0.051818
-56.677818 3.380312 -1.577308 0.913549 0.037428 -0.405004
-57.422321 3.874953 -1.601834 0.857680 0.352905 0.373956
-57.632057 2.681320 -1.265849 0.979985 0.169021 0.105173
-57.291481 2.844949 -1.258022 0.792572 -0.371906 0.483234
-56.969902 3.006596 -1.249185 0.973421 -0.148807 -0.174094
-57.488247 3.843943 -1.263800 0.577564 0.540450 0.611828
-57.579655 4.030996 -1.266728 0.572442 0.545596 0.612075
-57.363064 2.797778 -0.220987 0.426163 0.701789 0.570857
-57.113781 2.874516 -0.219119 0.426163 0.701789 0.570857
-56.927204 3.042298 -0.217205 0.316837 0.717943 0.619816
-57.981491 3.056424 -0.579610 0.549321 0.669318 0.500259
-57.981491 3.056424 -0.579610 0.549321 0.669318 0.500259
-58.581306 4.142895 -0.994153 0.292666 0.729860 0.617780
-58.309910 3.940667 -0.988327 0.362233 0.721212 0.590458
-73.706078 2.165437 -1.675838 0.675124 -0.194251 0.711670
-73.695808 2.625322 -1.675796 0.740979 0.219355 0.634692
-73.632156 2.227025 -0.339873 0.704449 -0.619773 0.345880
-73.679878 2.689968 -0.339798 0.875078 -0.329112 -0.354856
-73.884232 2.928117 -0.341659 0.780768 0.117128 -0.613744
-74.251686 1.601110 -1.688589 0.622463 -0.566240 0.540290
-74.076515 3.102593 -1.685533 0.676522 0.559395 0.478952
-75.050598 1.568821 -1.327141 0.429807 -0.826410 0.363748
-74.932961 1.799651 -1.325183 0.665267 -0.656960 0.354715
-74.477676 2.254094 -1.316393 0.617032 -0.323756 0.717254
-74.333405 2.714845 -1.313427 0.756529 0.214962 0.617621
-74.691788 3.312066 -1.321164 0.874185 0.473475 0.107806
-74.337753 2.947797 -1.313401 0.749219 0.449365 0.486562
-74.910133 3.557227 -1.326017 0.874185 0.473475 0.107807
-74.891869 1.726501 -0.806214 0.670359 -0.629026 0.393631
-74.654228 1.954213 -0.803324 0.836493 -0.491922 0.241440
-74.416588 2.180925 -0.799435 0.702320 -0.618744 -0.351997
-74.308952 2.409766 -0.798472 0.747456 -0.361070 -0.557618
-74.666702 3.238933 -0.803186 0.944053 0.180560 -0.275973
-74.305672 2.874657 -0.798426 0.931291 0.144153 -0.334539
-74.887054 3.483096 -0.807037 0.969299 0.169460 -0.178164
-74.996407 1.800476 -0.349147 0.859044 -0.510782 0.033831
-74.772087 1.912228 -0.348262 0.730384 -0.512062 -0.452030
-74.067596 3.167244 -0.342531 0.852418 0.322060 -0.411900
-74.200943 3.405323 -0.344432 0.849946 0.271990 -0.451235
-21.574318 -1.220843 -1.315554 0.786470 0.611288 0.088272
-21.409380 -1.417673 -1.304407 0.641372 0.216052 -0.736182
-21.711433 -1.053985 -1.324678 0.957826 -0.174750 0.228105
-21.085814 -1.070325 -1.131324 0.107811 -0.746638 0.656437
-21.847073 -1.145016 -0.917728 0.615935 -0.720072 0.319563
-21.663389 -0.995839 -0.908668 0.603104 -0.730887 0.319484
-22.096285 -1.426287 -1.074787 0.631145 -0.757654 0.166183
-22.882441 -1.918975 -0.839085 0.653275 0.645400 0.395842
-41.255360 -3.332482 0.326117 0.991611 -0.109365 0.068903
-41.476044 -2.754793 0.325795 0.307326 0.345340 0.886731
-41.384628 -3.012661 0.325935 0.886250 -0.154587 0.436650
-41.653885 -2.236053 0.326516 0.373255 0.555161 -0.743288
-41.390682 -3.367488 0.833053 0.846408 -0.112365 0.520544
-40.639744 -3.361806 0.610472 -0.126907 -0.283721 0.950472
-41.677654 -2.925841 0.835741 0.894274 0.228998 0.384491
-41.090553 -2.875325 0.615053 0.106441 0.009125 0.994277
-40.803150 -3.115005 0.612296 -0.212994 -0.225313 0.950720
-41.835499 -2.404081 0.837473 0.997977 0.005719 -0.063315
-41.028542 -2.413339 0.613929 0.559703 0.501409 -0.659790
-41.769215 -1.802114 0.836301 0.875543 0.354885 -0.327843
-41.087677 -2.025460 0.613762 0.655242 0.746017 -0.118816
-41.800827 -2.934883 1.158675 0.877137 -0.192742 0.439864
-41.585690 -2.390761 1.152609 0.933686 -0.355837 -0.040147
-41.450268 -2.184662 1.149613 0.989167 0.019445 -0.145500
-41.619629 -1.850834 1.351402 0.907221 0.420652 0.001183
-41.389065 -2.037578 1.344597 0.929991 0.104280 0.352481
-41.809769 -1.461084 1.355159 0.711489 0.605654 0.356324
-41.705845 -2.351772 1.621528 0.848655 -0.272859 0.453137
-41.741276 -2.088850 1.622417 0.663073 0.261127 0.701532
-43.005363 -2.702421 -0.151081 0.966441 0.223619 -0.126440
-42.738670 -2.346218 -0.149055 0.966441 0.223619 -0.126440
-43.033806 -1.951577 -0.151359 0.920044 0.390942 0.026146
-43.197815 -1.478819 -0.152617 0.457081 0.662949 -0.592938
-42.906555 -2.713255 0.124978 0.954422 0.167367 -0.247116
-43.028267 -2.583397 0.124865 0.966441 0.223619 -0.126440
-42.871849 -2.370279 0.124879 0.966441 0.223619 -0.126440
-43.030716 -1.831527 0.124601 0.762964 0.408101 -0.501337
-42.895283 -2.098348 0.124771 0.815155 0.206542 -0.541168
-42.306995 -1.867757 0.328021 0.313264 0.629821 -0.710768
-41.960438 -2.052385 0.327280 0.661985 0.724099 -0.193536
-43.758816 -1.375274 0.331030 0.406273 0.913739 -0.004907
-43.058151 -1.559600 0.124490 0.519744 0.564642 -0.641128
-42.450142 -1.469965 0.327801 0.456357 0.449942 -0.767653
-42.638035 -2.245895 0.848967 0.566397 0.106566 -0.817214
-42.042347 -2.348293 0.840337 0.627284 -0.100321 -0.772302
-42.636906 -1.764027 0.628799 -0.188964 -0.385900 0.902981
-42.396336 -1.955759 0.626002 0.555060 -0.148887 -0.818377
-43.333599 -1.593688 0.859347 0.463624 0.857149 0.224384
-43.937054 -0.912454 0.639766 0.833634 0.426767 0.350605
-41.946766 -3.333912 1.362731 0.754316 0.082407 0.651319
-42.052185 -3.074057 1.364582 0.748934 -0.083822 0.657321
-43.537346 -1.880759 1.195333 0.438513 0.891478 0.113899
-43.942310 -1.325201 1.412909 0.659683 0.380531 -0.648085
-42.412533 -3.676244 1.648587 0.513886 -0.215297 0.830403
-42.051979 -3.375943 1.635686 0.693239 0.018995 0.720458
-42.156971 -2.914120 1.638469 0.765620 -0.290130 0.574152
-42.188553 -1.776338 1.637056 0.625699 0.368850 0.687351
-42.333698 -1.378546 1.640835 0.492751 0.860518 0.129250
-43.929573 -0.874196 1.693757 0.671167 0.101771 -0.734287
-43.961468 -0.317322 1.694540 0.513591 0.211592 -0.831536
-43.925022 -0.596239 1.693660 0.561986 0.141341 -0.814981
-45.801281 -3.459045 -0.174386 0.586194 -0.027015 -0.809720
-44.440212 -1.239092 -0.163402 -0.468958 0.097281 0.877847
-45.185364 -0.828903 -0.169969 0.713253 0.397995 -0.576948
-44.641930 -1.102316 -0.164565 -0.419210 0.187697 0.888275
-45.274410 -0.329080 -0.170199 0.927547 0.075127 -0.366076
-44.826870 -0.041686 -0.167049 0.348844 0.738906 -0.576477
-44.655403 -1.264231 0.121485 0.086359 0.921811 0.377897
-44.044395 -1.174591 0.331798 0.604106 0.794611 -0.060409
-45.526558 -0.856166 0.118848 0.748310 0.662096 -0.040750
-45.393837 -0.998009 0.118974 0.654656 0.744529 0.130776
-44.563103 -1.047126 0.333460 0.755501 -0.169994 0.632709
-44.252735 -0.337942 0.332382 0.566568 0.515565 0.642801
-44.316204 -0.130093 0.121272 0.351659 0.749474 0.560914
-45.135139 -1.444488 0.885279 -0.282758 0.939438 0.193660
-44.866592 -1.151274 0.881326 0.922109 -0.172617 -0.346293
-44.070744 -1.264526 0.641815 0.413378 0.910154 0.027154
-44.603050 -0.862065 0.877372 0.827965 0.430274 -0.359636
-44.106331 -1.055597 0.641721 0.773429 0.562242 0.292733
-45.608089 -0.375143 0.891629 0.108649 0.987790 -0.111649
-44.890945 -0.363493 0.649031 0.356854 0.742934 0.566308
-44.382080 -1.284691 1.213647 0.596801 0.800206 -0.059154
-44.588924 -0.636955 1.429300 0.800981 0.575101 -0.166397
-44.289249 -0.859673 1.211548 0.762104 0.408303 -0.502480
-44.633514 -0.425035 1.430199 0.546416 0.555670 -0.626625
-45.498753 -0.090999 1.237589 0.193102 0.880376 -0.433186
-44.120399 -1.298311 1.700799 0.683892 0.201553 -0.701190
-44.700985 -1.102914 1.719403 0.652201 0.157436 -0.741517
-44.033295 -0.737321 1.696649 0.561986 0.141341 -0.814981
-46.178978 -3.340438 -0.177640 0.646056 0.144245 -0.749536
-46.658600 -1.004334 -0.181738 0.570853 0.137016 0.809539
-46.215179 -3.365398 0.118349 0.648936 0.122619 -0.750897
-47.143360 -1.657428 0.915223 0.425271 -0.270441 0.863717
-46.435966 -1.481821 0.664559 0.170580 -0.407657 0.897061
-47.658253 -0.196982 1.817406 0.270800 -0.238873 0.932527
-49.509735 -1.004029 0.345652 -0.135066 0.947594 -0.289521
-50.434322 -0.425810 1.346919 0.101077 -0.883258 0.457863
-50.458714 -3.572103 1.915040 0.530121 0.214964 0.820221
-52.497204 -0.138758 1.977646 0.091337 -0.667926 -0.738602
-64.908875 -0.929376 0.077922 0.544203 -0.701132 0.460714
-64.179253 -1.095541 0.383397 0.075260 -0.904650 0.419458
-64.332558 -1.149571 0.834331 0.655084 -0.556284 0.511286
-68.665024 -5.713140 -0.368409 0.058891 -0.150097 0.986916
-68.701813 -5.498224 -0.368509 0.017077 0.037524 0.999150
-26.039917 -5.441889 -1.326818 0.972660 -0.219483 0.075889
-25.943314 -5.493753 -1.150751 0.973186 0.213020 0.086786
-27.203991 -6.188747 -0.537236 0.514934 -0.853296 -0.082030
-26.174042 -5.442905 -0.844890 0.789839 0.587810 0.175027
-27.075783 -6.075601 -0.389198 0.463670 -0.884879 -0.044710
-27.215120 -6.152642 -0.021252 -0.572396 0.819154 -0.036735
-27.213186 -6.144600 0.158747 -0.485663 0.871599 -0.066688
-27.212904 -6.270481 0.633783 0.716168 0.696470 0.045097
-27.333870 -6.023615 0.634648 0.744821 0.667197 -0.009441
-27.284988 -6.238430 1.163735 0.819670 0.568619 0.069381
-27.475491 -6.228158 -1.234371 0.647197 -0.721887 0.244982
-29.245556 -6.357673 -0.591289 0.645313 -0.725052 0.240563
-27.538527 -6.181103 -0.715418 -0.545423 0.831322 0.106853
-28.627787 -5.993159 -0.749060 0.050238 0.984237 0.169567
-27.347626 -6.129888 -0.540329 0.514934 -0.853296 -0.082030
-29.171934 -6.391515 -0.223239 0.504322 -0.863078 -0.027482
-27.324066 -6.221825 -0.394291 0.463670 -0.884879 -0.044710
-28.578060 -5.976990 -0.214037 0.520467 -0.853094 -0.036663
-27.539791 -6.401886 0.157644 0.638992 -0.768466 0.033889
-28.666397 -6.040983 0.154933 0.392020 -0.917504 -0.067129
-28.194370 -7.539291 0.652611 -0.156025 0.167263 0.973488
-27.733643 -7.182892 0.644758 -0.070544 0.219519 0.973054
-27.976753 -6.749190 0.497507 0.168678 0.350519 0.921241
-27.684313 -6.795878 0.642677 -0.222648 0.160525 0.961592
-28.467155 -6.152705 0.500073 0.799088 0.571827 -0.185667
-28.133890 -6.551355 0.498367 0.287347 0.310378 0.906144
-27.854441 -6.603055 0.644531 -0.102035 0.262438 0.959539
-28.641298 -5.952888 0.501922 0.692792 0.527988 -0.491191
-28.334841 -6.005559 0.649103 0.769593 0.586932 -0.251469
-27.429842 -5.991627 0.986588 0.823884 0.559339 0.091404
-30.132122 -7.798502 -1.202353 -0.271383 -0.117188 0.955311
-29.655422 -7.426086 -1.178203 -0.586375 0.439684 0.680325
-29.353836 -7.153826 -1.162119 0.777417 -0.352181 -0.521144
-29.337181 -6.952830 -1.159167 0.829929 -0.262137 -0.492445
-30.702936 -7.548982 -0.825731 0.526982 -0.831143 0.177456
-30.228479 -7.226521 -0.621568 -0.421783 0.877849 -0.226893
-30.623251 -7.527777 -0.247694 0.576461 -0.789504 0.210653
-30.153868 -7.261360 -0.240518 0.467529 -0.837746 0.282131
-30.213888 -7.222332 0.152439 0.619607 -0.765440 0.173752
-29.318098 -6.421565 0.153691 0.510522 -0.859081 -0.036712
-31.179726 -7.924351 -0.649879 0.843242 -0.536690 -0.030114
-31.120441 -8.069190 -0.255805 0.960667 -0.272943 0.051203
-31.206461 -8.036182 0.150139 0.944214 -0.316364 0.091513
-31.522442 -8.397354 0.535074 0.924562 0.363220 -0.115137
-39.878025 -9.237327 -0.130192 0.846821 0.470433 -0.248165
-41.152195 -7.895760 -0.138314 0.748553 0.299601 -0.591530
-41.082615 -7.612737 -0.138367 0.889537 -0.152242 -0.430751
-40.511417 -7.375222 -0.133129 0.639072 -0.570807 0.515525
-40.148087 -7.194958 -0.382987 -0.569331 0.378949 0.729562
-40.085453 -9.432436 0.131756 0.825890 0.490182 -0.278617
-40.330711 -8.686740 0.327388 0.883739 0.421753 0.202806
-40.539524 -8.261050 0.131139 0.820537 0.564097 0.092269
-40.351257 -8.490789 0.327315 0.862848 0.492416 0.114107
-40.684860 -7.956192 0.327962 0.822806 0.560749 -0.092478
-40.345367 -8.089845 0.327191 0.820252 0.540567 -0.187014
-40.998508 -7.477615 0.129636 0.877513 -0.379075 0.293723
-40.872639 -7.456451 0.327698 0.970626 0.226687 0.080610
-40.706490 -8.177112 0.620021 0.849393 0.527714 0.006976
-40.539207 -7.952936 0.831041 0.960951 0.247058 0.124641
-40.396931 -7.791824 0.828068 0.903102 0.427094 0.044696
-40.964653 -7.363437 0.835618 0.845185 0.519455 0.125816
-40.938248 -7.627370 0.835718 0.837574 0.537854 -0.095827
-39.589199 -9.807678 1.136142 0.791732 0.571731 -0.215139
-39.011929 -9.928114 1.124492 0.868533 0.448721 -0.210476
-39.474319 -9.381633 1.131073 0.778344 0.570499 -0.262128
-39.411560 -9.422523 1.322120 0.703903 0.361705 0.611302
-40.876060 -8.356123 1.155985 0.990149 -0.135226 0.036308
-40.316681 -8.429533 1.340315 0.387302 0.443232 0.808420
-40.633141 -7.825928 1.344949 0.887546 0.325147 0.326408
-41.145798 -7.396532 1.157529 0.917313 0.373534 0.137879
-40.930126 -7.492310 1.153679 0.701012 0.683416 0.203777
-39.757996 -9.669756 1.595008 0.703903 0.361705 0.611302
-39.572433 -9.359625 1.587013 0.703903 0.361705 0.611302
-40.198364 -8.637328 1.601445 0.548167 0.706975 0.446877
-40.821510 -8.432952 1.621040 0.784761 0.618768 -0.035725
-41.084988 -7.811300 1.624696 0.750828 0.499520 0.432130
-40.749634 -8.014948 1.614946 0.957730 0.077276 0.277095
-42.802193 -7.596590 -0.951319 -0.318812 -0.259830 0.911508
-41.318340 -7.942850 0.129610 0.849063 0.326581 -0.415255
-42.275471 -11.309950 1.410150 0.736697 -0.496215 -0.459400
-42.108624 -10.837865 1.403094 0.756887 -0.511195 -0.407186
-42.239861 -10.516040 1.403922 0.756887 -0.511195 -0.407186
-42.216824 -10.903893 1.685056 0.756887 -0.511195 -0.407186
-42.266788 -10.419017 1.682877 0.756888 -0.511195 -0.407186
-43.142654 -7.706287 1.691530 0.160350 -0.068002 0.984715
-44.026909 -11.019958 0.124108 -0.456613 0.520721 0.721356
-43.733265 -11.093665 0.124291 -0.440888 0.516489 0.734069
-43.456142 -10.874387 0.337373 -0.515673 0.430621 0.740707
-43.834465 -10.161865 0.337942 -0.598363 0.276425 0.752032
-43.379181 -10.421434 0.125272 -0.555715 0.313906 0.769834
-42.912975 -10.595913 0.335581 -0.523622 0.318960 0.789990
-43.906162 -10.031956 0.337861 -0.622666 0.267599 0.735309
-42.835121 -11.402513 1.214875 0.665612 -0.534457 -0.520880
-42.767551 -11.095496 1.211816 0.736697 -0.496215 -0.459400
-42.598331 -11.290195 1.700969 0.736697 -0.496215 -0.459400
-45.419697 -11.897096 0.343627 -0.409185 0.192190 0.891981
-46.958561 -11.644879 -0.830291 -0.263163 -0.111187 0.958323
-47.362202 -11.031375 -0.836708 0.644254 0.437558 -0.627280
-47.888557 -10.278017 -0.844241 0.644254 0.437558 -0.627280
-48.269508 -9.801472 -0.850607 0.072345 0.114568 0.990778
-48.560627 -9.381829 -0.854906 0.072345 0.114568 0.990778
-48.982319 -8.741357 -0.861352 0.030927 0.101077 0.994398
-48.830753 -8.954170 -0.859197 0.072345 0.114568 0.990778
-48.321465 -9.684464 -0.505674 0.514255 0.313400 -0.798325
-51.158741 -9.300711 1.963633 0.736219 0.005101 0.676724
-58.592514 -11.442946 0.093249 0.665613 0.632895 0.395478
-58.717072 -10.408872 1.837826 0.728903 0.571107 0.377542
-59.541264 -11.261743 0.802662 0.503937 0.817559 0.278647
-59.841732 -10.928102 0.805381 0.551042 0.739161 0.387290
-61.920403 -16.155317 -0.322000 -0.200115 0.501966 0.841418
-61.942196 -16.370487 -1.165941 -0.292329 0.405348 0.866162
-62.064224 -16.249527 -0.719048 -0.247878 0.385391 0.888836
-64.695084 -12.742809 -0.746682 0.017595 -0.287924 0.957492
-64.689354 -12.788699 -0.339663 0.855518 0.045108 -0.515805
-61.986546 -15.989254 0.389909 -0.319887 0.342267 0.883473
-63.622345 -11.824590 0.842595 0.094961 0.386467 -0.917402
-65.861046 -16.024258 -0.772206 -0.123099 -0.078554 0.989281
-65.378296 -13.199380 -0.757902 0.861953 -0.088468 -0.499210
-64.658661 -13.266664 -0.747481 0.861953 -0.088468 -0.499210
-64.848671 -13.139781 -0.341630 0.855518 0.045108 -0.515805
-65.461327 -13.048397 -0.346000 0.855517 0.045108 -0.515805
-39.298321 -18.071259 1.193683 0.989438 -0.142477 0.026691
-39.533909 -15.472718 1.647844 0.599276 0.253929 -0.759203
-50.564903 -21.938654 -1.254100 0.251535 0.007154 0.967822
-51.005432 -20.521299 -1.250745 0.493640 0.129469 0.859975
-50.898941 -20.575047 -0.581673 0.776773 -0.405287 0.482044
-50.911179 -20.630976 -0.242663 0.534195 -0.822419 0.195606
-50.946396 -20.683924 0.108334 0.486013 -0.862196 0.142865
-50.877254 -20.452841 0.368303 0.499181 -0.866336 -0.016775
-51.023453 -20.550879 0.753255 0.475459 -0.879702 0.007927
-51.220795 -20.812958 1.041227 0.607001 -0.762236 0.224825
-50.851154 -20.682545 1.453385 0.693747 -0.467023 0.548275
-50.814659 -20.461636 1.033339 0.144472 0.989383 0.015760
-51.015041 -20.619652 1.717280 0.577710 0.207773 0.789355
-51.323963 -22.044628 2.096532 -0.397247 -0.185667 0.898734
-50.944469 -20.749487 2.068355 0.407762 0.091083 0.908534
-50.944469 -20.749487 2.068355 0.407762 0.091083 0.908534
-52.054623 -20.153624 2.094591 -0.071929 -0.175377 0.981870
-51.036034 -20.505613 2.068235 0.417540 0.225745 0.880170
-52.178185 -19.917778 2.095454 -0.198052 -0.062389 0.978204
-52.915726 -23.107449 -0.264997 0.916047 -0.400704 0.017159
-52.877674 -22.300547 -0.262211 0.742833 -0.196031 0.640133
-52.515144 -21.663313 -0.258207 0.836165 0.183403 0.516905
-52.484886 -21.456318 -0.257252 0.896587 0.279370 0.343634
-52.716969 -23.761076 0.103296 0.796276 -0.371365 -0.477528
-53.001064 -23.287420 0.103011 0.852571 -0.403298 -0.332375
-53.289402 -22.893696 0.377745 0.823229 -0.376848 0.424593
-52.477993 -22.861000 0.104162 0.782277 -0.235023 -0.576894
-52.739338 -22.462254 0.375909 0.991011 -0.126301 -0.044113
-52.435345 -22.353045 0.105037 0.951281 0.135930 -0.276746
-52.965061 -21.674597 0.374559 0.685866 0.366963 0.628432
-52.555500 -21.818247 0.104817 0.939170 0.343450 -0.001559
-52.385826 -21.942066 0.104943 0.899637 0.385505 0.205035
-53.044769 -21.512699 0.374469 0.754763 -0.000480 0.655997
-52.717041 -21.592436 0.104666 0.848043 0.489701 0.202525
-53.793949 -20.754595 0.102845 0.863044 0.406078 -0.300425
-53.858662 -20.583685 0.102760 0.847247 0.365770 -0.385207
-53.993546 -19.741899 0.374433 0.811862 0.412930 -0.412758
-53.877472 -19.718853 0.102488 0.825564 0.270147 -0.495443
-52.577389 -23.722807 0.780358 0.934366 -0.230265 -0.271917
-52.466164 -23.473743 0.778345 0.905419 -0.356342 -0.230732
-52.284966 -23.195621 0.776360 -0.692231 0.432953 0.577380
-51.941555 -22.652390 0.770384 0.884743 -0.051775 -0.463194
-53.027493 -22.628408 0.779806 0.458288 0.270792 0.846548
-52.502949 -22.601923 0.775074 0.947854 -0.234496 -0.215836
-52.219185 -22.577662 0.772216 0.861125 -0.051590 -0.505769
-53.651817 -21.801132 0.782233 0.663750 0.089099 0.742628
-53.460278 -22.018917 0.781399 0.699771 0.281014 0.656774
-53.233902 -20.852901 0.774173 0.966567 -0.015059 0.255973
-53.120544 -20.519854 0.772133 0.939312 -0.007116 -0.342990
-52.940804 -19.876795 0.768036 0.784270 0.301791 -0.542072
-52.940804 -19.876795 0.768036 0.784270 0.301791 -0.542072
-52.472561 -23.667656 1.075397 0.701885 -0.032119 -0.711566
-52.761917 -23.397970 1.078168 0.701721 -0.081448 -0.707781
-52.337345 -23.408573 1.072394 -0.667563 0.490559 0.560100
-53.096134 -23.046339 1.079891 0.620947 0.450687 -0.641331
-52.786514 -23.111040 1.076072 -0.608422 0.445785 0.656581
-51.970009 -22.172434 1.059230 0.766298 0.488978 -0.416759
-51.736362 -22.267200 1.057380 0.910042 0.297722 -0.288418
-51.442142 -22.622868 1.055637 0.953140 0.020608 -0.301828
-52.703945 -21.896166 1.067762 0.592766 0.611937 -0.523604
-52.331345 -21.935812 1.062970 0.675677 0.623999 -0.392538
-53.415977 -20.915998 1.072095 0.645607 -0.281752 0.709794
-53.969872 -20.447601 1.076660 0.373332 0.580928 0.723289
-53.705166 -19.768471 1.069596 0.447467 0.581427 0.679497
-52.910282 -19.383787 1.055903 0.615579 0.712471 -0.336820
-52.054638 -23.168200 1.770473 0.905616 -0.415095 -0.086925
-51.865765 -23.221073 1.497587 0.889566 -0.456629 -0.012729
-51.974922 -22.682262 1.495375 0.984032 -0.068059 0.164465
-52.004177 -22.890255 1.497419 0.971341 -0.221224 0.086933
-53.053551 -22.318270 1.785701 0.783776 -0.034931 -0.620060
-52.227158 -22.302559 1.496132 0.837106 0.547035 0.002601
-51.946529 -22.377285 1.491301 0.942249 0.333618 -0.029416
-52.518204 -21.705872 1.766804 0.884443 0.447506 -0.132282
-52.097153 -22.112411 1.760145 0.823003 0.529513 -0.205627
-51.893742 -21.775335 1.485154 0.785787 0.616513 -0.049514
-52.613903 -21.550989 1.766708 0.939797 -0.105163 0.325150
-52.217094 -21.523680 1.488910 0.976920 0.211139 0.032362
-53.453163 -20.816898 1.780046 0.217559 0.643393 -0.733971
-52.257088 -20.734793 1.749656 -0.128283 -0.181095 0.975063
-54.176060 -20.547682 1.521580 -0.027649 0.021217 0.999393
-53.010910 -20.357563 1.765143 0.728838 0.210497 -0.651526
-52.933670 -20.136528 1.760118 -0.299752 -0.072723 0.951241
-52.430767 -20.612974 1.752528 -0.120132 -0.151977 0.981056
-52.711475 -19.862366 1.752154 0.599764 0.194861 -0.776088
-52.686417 -23.318682 2.156185 0.679312 -0.155709 -0.717140
-52.264103 -23.528255 2.146467 0.769223 -0.583395 -0.260664
-51.425335 -22.376667 2.104575 0.698255 0.252477 -0.669848
-51.425335 -22.376667 2.104575 0.698255 0.252477 -0.669848
-52.417778 -21.926664 2.128922 -0.157233 -0.214188 0.964054
-51.650581 -21.991940 2.106345 0.654384 0.496263 -0.570529
-52.567993 -20.733006 2.118491 -0.146906 -0.132712 0.980207
-52.439304 -20.874861 2.115601 -0.146910 -0.111569 0.982838
-53.000126 -19.656595 2.117938 -0.381993 0.003861 0.924157
-53.663902 -24.700964 -0.639930 -0.644955 0.688280 0.332120
-53.718616 -24.521046 -0.640010 0.734280 -0.675156 -0.070692
